ply
format ascii 1.0
comment Created by Open3D
element vertex 3079
property double x
property double y
property double z
end_header
85 100 10.9893
86 100 9.3418
87 100 6.9944
88 100 3.41001
89 100 -2.08018
90 100 -9.15721
91 100 -14.6605
92 100 -20.2189
93 100 -18.4637
94 100 -17.101
95 100 -16.0413
96 100 -15.2343
97 100 -14.6268
98 100 -14.1702
99 100 -13.825
100 100 -13.5615
101 100 -13.3575
102 100 -13.197
103 100 -13.068
104 100 -12.9619
105 100 -12.8723
106 100 -12.7946
107 100 -12.7252
108 100 -12.6615
109 100 -12.6016
110 100 -12.5441
111 100 -12.488
112 100 -12.4323
113 100 -12.3767
114 100 -12.3207
115 100 -12.264
116 100 -12.2064
117 100 -12.1479
118 100 -12.0883
119 100 -12.0277
0 101 -11.9415
1 101 -11.8811
2 101 -11.8184
3 101 -11.7534
4 101 -11.6863
5 101 -11.617
6 101 -11.5457
7 101 -11.4723
8 101 -11.3968
9 101 -11.3193
10 101 -11.2396
11 101 -11.1577
12 101 -11.0733
13 101 -10.9862
14 101 -10.8961
15 101 -10.8026
16 101 -10.7051
17 101 -10.603
18 101 -10.4952
19 101 -10.3808
20 101 -10.2583
21 101 -10.1261
22 101 -9.98203
23 101 -9.82359
24 101 -9.64761
25 101 -9.45025
26 101 -9.2269
27 101 -8.97226
28 101 -8.68102
29 101 -8.35002
30 101 -7.98399
31 101 -7.60852
32 101 -7.29639
33 101 -7.22696
34 101 -7.92797
35 101 2.09896
36 101 5.39547
37 101 6.98047
38 101 8.03014
39 101 9.1773
40 101 10.3857
41 101 11.5335
42 101 12.6679
43 101 13.5591
44 101 14.6117
45 101 15.8401
46 101 16.6691
47 101 17.2532
48 101 17.6734
49 101 17.9412
50 101 18.1174
51 101 18.1317
52 101 18.1129
53 101 18.04
54 101 17.8965
55 101 17.7733
56 101 17.6263
57 101 17.4938
58 101 17.3814
59 101 17.2907
60 101 17.209
61 101 17.1177
62 101 17.0316
63 101 16.9067
64 101 16.768
65 101 16.6362
66 101 16.5126
67 101 16.4172
68 101 16.3444
69 101 16.2825
70 101 16.2489
71 101 16.2098
72 101 16.2126
73 101 16.215
74 101 16.2627
75 101 16.2562
76 101 16.1861
77 101 16.0394
78 101 15.8091
79 101 15.5225
80 101 15.1421
81 101 14.708
82 101 14.1908
83 101 13.5718
84 101 12.8363
85 101 11.9085
86 101 10.7434
87 101 8.77492
88 101 5.09165
89 101 -2.66061
90 101 -17.3801
91 101 -22.5423
92 101 -21.6306
93 101 -19.2381
94 101 -17.2605
95 101 -15.8687
96 101 -14.9212
97 101 -14.2735
98 101 -13.8235
99 101 -13.5046
100 101 -13.2738
101 101 -13.1032
102 101 -12.974
103 101 -12.8734
104 101 -12.7926
105 101 -12.7254
106 101 -12.6673
107 101 -12.6152
108 101 -12.5667
109 101 -12.5202
110 101 -12.4744
111 101 -12.4285
112 101 -12.3819
113 101 -12.3341
114 101 -12.2849
115 101 -12.234
116 101 -12.1814
117 101 -12.127
118 101 -12.0707
119 101 -12.0127
0 102 -11.9325
1 102 -11.8731
2 102 -11.8107
3 102 -11.7454
4 102 -11.6772
5 102 -11.6062
6 102 -11.5324
7 102 -11.4559
8 102 -11.3765
9 102 -11.2944
10 102 -11.2092
11 102 -11.121
12 102 -11.0295
13 102 -10.9344
14 102 -10.8353
15 102 -10.7317
16 102 -10.6232
17 102 -10.5088
18 102 -10.3878
19 102 -10.2589
20 102 -10.1208
21 102 -9.97195
22 102 -9.81024
23 102 -9.63332
24 102 -9.43838
25 102 -9.22215
26 102 -8.98098
27 102 -8.71118
28 102 -8.40987
29 102 -8.07702
30 102 -7.71994
31 102 -7.3625
32 102 -7.06572
33 102 -6.98343
34 102 -7.54774
35 102 2.33083
36 102 5.13556
37 102 6.34079
38 102 7.25619
39 102 8.47894
40 102 9.88263
41 102 11.1458
42 102 12.3002
43 102 13.1975
44 102 14.6617
45 102 15.8412
46 102 16.6473
47 102 17.1994
48 102 17.5562
49 102 17.7795
50 102 17.9162
51 102 17.919
52 102 17.8925
53 102 17.8147
54 102 17.6486
55 102 17.4747
56 102 17.279
57 102 17.1092
58 102 16.9885
59 102 16.8895
60 102 16.8051
61 102 16.707
62 102 16.5965
63 102 16.4741
64 102 16.3499
65 102 16.2352
66 102 16.1157
67 102 16.0295
68 102 15.9566
69 102 15.8914
70 102 15.8487
71 102 15.7975
72 102 15.7854
73 102 15.7835
74 102 15.8379
75 102 15.8549
76 102 15.8102
77 102 15.707
78 102 15.5387
79 102 15.3039
80 102 15.0081
81 102 14.687
82 102 14.3077
83 102 13.9136
84 102 13.5095
85 102 13.124
86 102 12.8047
87 102 12.3631
88 102 10.9342
89 102 3.24526
90 102 -36.5312
91 102 -32.7654
92 102 -24.523
93 102 -19.5977
94 102 -16.8343
95 102 -15.2517
96 102 -14.3082
97 102 -13.7224
98 102 -13.3456
99 102 -13.096
100 102 -12.9261
101 102 -12.8075
102 102 -12.7224
103 102 -12.659
104 102 -12.6097
105 102 -12.5693
106 102 -12.5341
107 102 -12.5015
108 102 -12.4699
109 102 -12.4379
110 102 -12.4047
111 102 -12.3698
112 102 -12.3326
113 102 -12.2929
114 102 -12.2507
115 102 -12.2058
116 102 -12.1582
117 102 -12.1079
118 102 -12.055
119 102 -11.9995
0 103 -11.9266
1 103 -11.8681
2 103 -11.8059
3 103 -11.7402
4 103 -11.6709
5 103 -11.5981
6 103 -11.5219
7 103 -11.4422
8 103 -11.3591
9 103 -11.2723
10 103 -11.1819
11 103 -11.0877
12 103 -10.9893
13 103 -10.8865
14 103 -10.7788
15 103 -10.6659
16 103 -10.5469
17 103 -10.4213
18 103 -10.2881
19 103 -10.1462
20 103 -9.9942
21 103 -9.83064
22 103 -9.65365
23 103 -9.46108
24 103 -9.25045
25 103 -9.01899
26 103 -8.7637
27 103 -8.48162
28 103 -8.17025
29 103 -7.82827
30 103 -7.45626
31 103 -7.05581
32 103 -6.62055
33 103 -6.0933
34 103 -5.17842
35 103 -2.50687
36 103 3.28661
37 103 5.1081
38 103 6.11717
39 103 7.62121
40 103 9.29322
41 103 10.7025
42 103 11.7627
43 103 13.1571
44 103 14.8299
45 103 15.9074
46 103 16.5902
47 103 17.1153
48 103 17.3943
49 103 17.626
50 103 17.7283
51 103 17.7197
52 103 17.6759
53 103 17.5553
54 103 17.402
55 103 17.2041
56 103 16.9655
57 103 16.7822
58 103 16.6362
59 103 16.4949
60 103 16.3615
61 103 16.2527
62 103 16.1525
63 103 16.0437
64 103 15.9076
65 103 15.8102
66 103 15.709
67 103 15.6122
68 103 15.5485
69 103 15.4751
70 103 15.4053
71 103 15.3582
72 103 15.3475
73 103 15.3509
74 103 15.403
75 103 15.4527
76 103 15.4347
77 103 15.3634
78 103 15.2487
79 103 15.0399
80 103 14.8119
81 103 14.5755
82 103 14.3307
83 103 14.1091
84 103 14.0262
85 103 14.1856
86 103 14.8855
87 103 16.9624
88 103 22.7372
89 103 40.9128
90 103 106.724
91 103 -43.0047
92 103 -24.0984
93 103 -17.7953
94 103 -15.2272
95 103 -13.9957
96 103 -13.3375
97 103 -12.9623
98 103 -12.7407
99 103 -12.6076
100 103 -12.5271
101 103 -12.4785
102 103 -12.449
103 103 -12.4306
104 103 -12.4181
105 103 -12.408
106 103 -12.3982
107 103 -12.387
108 103 -12.3735
109 103 -12.3569
110 103 -12.3369
111 103 -12.3132
112 103 -12.2857
113 103 -12.2544
114 103 -12.2192
115 103 -12.1803
116 103 -12.1376
117 103 -12.0914
118 103 -12.0418
119 103 -11.9887
0 104 -11.9245
1 104 -11.8668
2 104 -11.8048
3 104 -11.7385
4 104 -11.668
5 104 -11.5934
6 104 -11.5148
7 104 -11.432
8 104 -11.3452
9 104 -11.254
10 104 -11.1585
11 104 -11.0584
12 104 -10.9535
13 104 -10.8434
14 104 -10.7277
15 104 -10.6059
16 104 -10.4774
17 104 -10.3415
18 104 -10.1972
19 104 -10.0435
20 104 -9.87916
21 104 -9.70277
22 104 -9.51265
23 104 -9.30689
24 104 -9.08335
25 104 -8.83965
26 104 -8.57321
27 104 -8.28135
28 104 -7.96123
29 104 -7.60954
30 104 -7.22102
31 104 -6.78393
32 104 -6.26736
33 104 -5.59082
34 104 -4.56578
35 104 -2.87559
36 104 -0.80927
37 104 3.36391
38 104 4.74421
39 104 6.72228
40 104 8.72352
41 104 10.3719
42 104 11.4587
43 104 13.6212
44 104 14.9551
45 104 15.894
46 104 16.5088
47 104 16.9623
48 104 17.2391
49 104 17.4236
50 104 17.5218
51 104 17.4858
52 104 17.4047
53 104 17.2721
54 104 17.0962
55 104 16.8801
56 104 16.6306
57 104 16.3935
58 104 16.18
59 104 16.0409
60 104 15.9021
61 104 15.7815
62 104 15.6782
63 104 15.5707
64 104 15.4618
65 104 15.3554
66 104 15.264
67 104 15.1643
68 104 15.1004
69 104 15.0182
70 104 14.9543
71 104 14.9176
72 104 14.9107
73 104 14.9222
74 104 14.9683
75 104 15.0379
76 104 15.0536
77 104 15.0158
78 104 14.9343
79 104 14.7513
80 104 14.5317
81 104 14.3566
82 104 14.2089
83 104 14.0971
84 104 14.1596
85 104 14.5348
86 104 15.5285
87 104 17.6702
88 104 22.1187
89 104 29.9078
90 104 37.0648
91 104 -3.48141
92 104 -11.0705
93 104 -12.2581
94 104 -12.2834
95 104 -12.1664
96 104 -12.0838
97 104 -12.0486
98 104 -12.0474
99 104 -12.0665
100 104 -12.0963
101 104 -12.1303
102 104 -12.1645
103 104 -12.1962
104 104 -12.2239
105 104 -12.2465
106 104 -12.2636
107 104 -12.2748
108 104 -12.28
109 104 -12.2793
110 104 -12.2728
111 104 -12.2605
112 104 -12.2427
113 104 -12.2197
114 104 -12.1915
115 104 -12.1584
116 104 -12.1207
117 104 -12.0784
118 104 -12.0319
119 104 -11.9812
0 105 -11.927
1 105 -11.8699
2 105 -11.8079
3 105 -11.741
4 105 -11.6693
5 105 -11.5929
6 105 -11.5118
7 105 -11.426
8 105 -11.3355
9 105 -11.2401
10 105 -11.1397
11 105 -11.034
12 105 -10.9229
13 105 -10.8059
14 105 -10.6827
15 105 -10.5527
16 105 -10.4154
17 105 -10.27
18 105 -10.1156
19 105 -9.95141
20 105 -9.77618
21 105 -9.58863
22 105 -9.38729
23 105 -9.1705
24 105 -8.93642
25 105 -8.68303
26 105 -8.40815
27 105 -8.10935
28 105 -7.78379
29 105 -7.42762
30 105 -7.03437
31 105 -6.59152
32 105 -6.07414
33 105 -5.43684
34 105 -4.61828
35 105 -3.62045
36 105 -2.83234
37 105 1.5701
38 105 3.1794
39 105 5.78752
40 105 8.38204
41 105 9.87669
42 105 12.1259
43 105 13.9018
44 105 15.0029
45 105 15.8426
46 105 16.385
47 105 16.8023
48 105 17.063
49 105 17.2037
50 105 17.283
51 105 17.2425
52 105 17.1165
53 105 16.9654
54 105 16.7672
55 105 16.5116
56 105 16.2596
57 105 16.0042
58 105 15.7763
59 105 15.593
60 105 15.4405
61 105 15.2897
62 105 15.1565
63 105 15.0485
64 105 14.9632
65 105 14.8901
66 105 14.8121
67 105 14.7193
68 105 14.6329
69 105 14.5597
70 105 14.5103
71 105 14.4871
72 105 14.4917
73 105 14.4984
74 105 14.5415
75 105 14.6144
76 105 14.6515
77 105 14.64
78 105 14.5661
79 105 14.4049
80 105 14.2036
81 105 14.0326
82 105 13.9243
83 105 13.8282
84 105 13.8809
85 105 14.1602
86 105 14.8688
87 105 16.0481
88 105 17.836
89 105 19.2941
90 105 16.8055
91 105 3.0848
92 105 -4.44409
93 105 -7.88298
94 105 -9.4821
95 105 -10.3027
96 105 -10.7827
97 105 -11.1011
98 105 -11.3336
99 105 -11.5147
100 105 -11.6611
101 105 -11.782
102 105 -11.8824
103 105 -11.9659
104 105 -12.0347
105 105 -12.0906
106 105 -12.1349
107 105 -12.1686
108 105 -12.1925
109 105 -12.2076
110 105 -12.2143
111 105 -12.2133
112 105 -12.2051
113 105 -12.19
114 105 -12.1687
115 105 -12.1413
116 105 -12.1082
117 105 -12.0697
118 105 -12.0262
119 105 -11.9777
0 106 -11.9346
1 106 -11.878
2 106 -11.8158
3 106 -11.7482
4 106 -11.6752
5 106 -11.597
6 106 -11.5135
7 106 -11.4248
8 106 -11.3307
9 106 -11.2312
10 106 -11.1261
11 106 -11.0151
12 106 -10.8981
13 106 -10.7747
14 106 -10.6445
15 106 -10.5069
16 106 -10.3614
17 106 -10.2074
18 106 -10.044
19 106 -9.87037
20 106 -9.68551
21 106 -9.48827
22 106 -9.27737
23 106 -9.05139
24 106 -8.8088
25 106 -8.54792
26 106 -8.267
27 106 -7.96409
28 106 -7.63698
29 106 -7.2828
30 106 -6.89731
31 106 -6.47363
32 106 -6.00085
33 106 -5.4641
34 106 -4.85004
35 106 -4.15561
36 106 -3.32915
37 106 -1.71121
38 106 0.989945
39 106 4.79255
40 106 8.1587
41 106 10.5663
42 106 12.7823
43 106 14.1182
44 106 15.0717
45 106 15.7652
46 106 16.2607
47 106 16.6174
48 106 16.85
49 106 16.9951
50 106 17.0704
51 106 16.9862
52 106 16.829
53 106 16.6463
54 106 16.4025
55 106 16.141
56 106 15.8802
57 106 15.6039
58 106 15.3774
59 106 15.1631
60 106 14.9702
61 106 14.8322
62 106 14.6758
63 106 14.555
64 106 14.4624
65 106 14.3791
66 106 14.2941
67 106 14.2343
68 106 14.1594
69 106 14.1114
70 106 14.0721
71 106 14.0511
72 106 14.0606
73 106 14.0763
74 106 14.1091
75 106 14.1832
76 106 14.243
77 106 14.2491
78 106 14.1841
79 106 14.0349
80 106 13.816
81 106 13.6257
82 106 13.4648
83 106 13.3539
84 106 13.2888
85 106 13.3258
86 106 13.5544
87 106 13.7928
88 106 13.7501
89 106 12.2907
90 106 6.7539
91 106 3.45919
92 106 -1.9077
93 106 -5.34767
94 106 -7.45933
95 106 -8.77948
96 106 -9.64327
97 106 -10.2393
98 106 -10.6713
99 106 -10.9976
100 106 -11.2517
101 106 -11.454
102 106 -11.6173
103 106 -11.7503
104 106 -11.8586
105 106 -11.9464
106 106 -12.0167
107 106 -12.072
108 106 -12.114
109 106 -12.1441
110 106 -12.1636
111 106 -12.1733
112 106 -12.1741
113 106 -12.1668
114 106 -12.1518
115 106 -12.1298
116 106 -12.1011
117 106 -12.0662
118 106 -12.0253
119 106 -11.9788
0 107 -11.948
1 107 -11.8917
2 107 -11.8293
3 107 -11.7608
4 107 -11.6865
5 107 -11.6064
6 107 -11.5205
7 107 -11.4288
8 107 -11.3313
9 107 -11.2278
10 107 -11.1183
11 107 -11.0023
12 107 -10.8798
13 107 -10.7503
14 107 -10.6135
15 107 -10.4689
16 107 -10.316
17 107 -10.1541
18 107 -9.98257
19 107 -9.80057
20 107 -9.60724
21 107 -9.40158
22 107 -9.18253
23 107 -8.9489
24 107 -8.69945
25 107 -8.43287
26 107 -8.14783
27 107 -7.84304
28 107 -7.51722
29 107 -7.16928
30 107 -6.79843
31 107 -6.40486
32 107 -5.99153
33 107 -5.56867
34 107 -5.16216
35 107 -4.82281
36 107 -4.61744
37 107 -4.58403
38 107 -1.7354
39 107 4.85722
40 107 9.23739
41 107 11.8619
42 107 13.2618
43 107 14.2926
44 107 15.0718
45 107 15.6548
46 107 16.0866
47 107 16.4233
48 107 16.6387
49 107 16.7608
50 107 16.8218
51 107 16.7124
52 107 16.5197
53 107 16.2861
54 107 16.0259
55 107 15.7623
56 107 15.4925
57 107 15.2078
58 107 14.9322
59 107 14.7111
60 107 14.5209
61 107 14.352
62 107 14.2027
63 107 14.0669
64 107 13.9631
65 107 13.898
66 107 13.8224
67 107 13.7649
68 107 13.7032
69 107 13.6559
70 107 13.6275
71 107 13.6326
72 107 13.6271
73 107 13.6494
74 107 13.6867
75 107 13.7647
76 107 13.8175
77 107 13.8341
78 107 13.7521
79 107 13.5901
80 107 13.3497
81 107 13.1243
82 107 12.8982
83 107 12.6799
84 107 12.4647
85 107 12.2483
86 107 12.0557
87 107 11.6712
88 107 10.8514
89 107 9.08952
90 107 5.69155
91 107 2.18035
92 107 -1.29822
93 107 -4.14069
94 107 -6.22804
95 107 -7.71264
96 107 -8.77163
97 107 -9.54142
98 107 -10.1149
99 107 -10.5526
100 107 -10.894
101 107 -11.1649
102 107 -11.3827
103 107 -11.5592
104 107 -11.7028
105 107 -11.8195
106 107 -11.9137
107 107 -11.9888
108 107 -12.0473
109 107 -12.0914
110 107 -12.1226
111 107 -12.1422
112 107 -12.1514
113 107 -12.1511
114 107 -12.1421
115 107 -12.1249
116 107 -12.1003
117 107 -12.0685
118 107 -12.0301
119 107 -11.9854
0 108 -11.9678
1 108 -11.9116
2 108 -11.8487
3 108 -11.7793
4 108 -11.7035
5 108 -11.6215
6 108 -11.5333
7 108 -11.4387
8 108 -11.3379
9 108 -11.2306
10 108 -11.1168
11 108 -10.9961
12 108 -10.8684
13 108 -10.7333
14 108 -10.5904
15 108 -10.4393
16 108 -10.2796
17 108 -10.1105
18 108 -9.9316
19 108 -9.74211
20 108 -9.54128
21 108 -9.3283
22 108 -9.10226
23 108 -8.86223
24 108 -8.60723
25 108 -8.33627
26 108 -8.04844
27 108 -7.743
28 108 -7.4196
29 108 -7.07867
30 108 -6.72227
31 108 -6.35583
32 108 -5.99176
33 108 -5.65689
34 108 -5.40711
35 108 -5.35604
36 108 -5.73378
37 108 -7.01395
38 108 -4.18499
39 108 6.28612
40 108 11.73
41 108 12.6537
42 108 13.5224
43 108 14.3363
44 108 14.9985
45 108 15.5126
46 108 15.8739
47 108 16.209
48 108 16.4156
49 108 16.5338
50 108 16.5796
51 108 16.4452
52 108 16.2044
53 108 15.952
54 108 15.6564
55 108 15.3645
56 108 15.0645
57 108 14.7771
58 108 14.4927
59 108 14.2567
60 108 14.0522
61 108 13.8694
62 108 13.72
63 108 13.5747
64 108 13.4694
65 108 13.3962
66 108 13.339
67 108 13.2793
68 108 13.2332
69 108 13.2018
70 108 13.196
71 108 13.1859
72 108 13.2027
73 108 13.2191
74 108 13.2654
75 108 13.3259
76 108 13.3874
77 108 13.3916
78 108 13.3197
79 108 13.1206
80 108 12.8354
81 108 12.5727
82 108 12.2812
83 108 11.9532
84 108 11.5939
85 108 11.1755
86 108 10.6505
87 108 9.91865
88 108 8.7742
89 108 7.07059
90 108 4.32881
91 108 1.26181
92 108 -1.32482
93 108 -3.68883
94 108 -5.59952
95 108 -7.07141
96 108 -8.18919
97 108 -9.03993
98 108 -9.69409
99 108 -10.2039
100 108 -10.6068
101 108 -10.929
102 108 -11.1894
103 108 -11.4012
104 108 -11.574
105 108 -11.7152
106 108 -11.8298
107 108 -11.9221
108 108 -11.9951
109 108 -12.0515
110 108 -12.0931
111 108 -12.1215
112 108 -12.1382
113 108 -12.1442
114 108 -12.1404
115 108 -12.1277
116 108 -12.1065
117 108 -12.0775
118 108 -12.0412
119 108 -11.9979
0 109 -11.9945
1 109 -11.9381
2 109 -11.8746
3 109 -11.8041
4 109 -11.7269
5 109 -11.6429
6 109 -11.5523
7 109 -11.455
8 109 -11.3509
9 109 -11.24
10 109 -11.1221
11 109 -10.997
12 109 -10.8644
13 109 -10.724
14 109 -10.5755
15 109 -10.4184
16 109 -10.2524
17 109 -10.0768
18 109 -9.89121
19 109 -9.69498
20 109 -9.48749
21 109 -9.26806
22 109 -9.03599
23 109 -8.79054
24 109 -8.53097
25 109 -8.25654
26 109 -7.96665
27 109 -7.66092
28 109 -7.3395
29 109 -7.00353
30 109 -6.65617
31 109 -6.30444
32 109 -5.96278
33 109 -5.66001
34 109 -5.45335
35 109 -5.46047
36 109 -5.94768
37 109 -7.62767
38 109 -0.407915
39 109 8.43376
40 109 12.0535
41 109 12.7303
42 109 13.5373
43 109 14.2364
44 109 14.8159
45 109 15.2464
46 109 15.6309
47 109 15.9759
48 109 16.1728
49 109 16.3039
50 109 16.2907
51 109 16.1137
52 109 15.8366
53 109 15.5555
54 109 15.2646
55 109 14.9649
56 109 14.6574
57 109 14.3419
58 109 14.0479
59 109 13.7891
60 109 13.5802
61 109 13.3925
62 109 13.2488
63 109 13.1167
64 109 13.0032
65 109 12.9186
66 109 12.8473
67 109 12.8084
68 109 12.7743
69 109 12.7547
70 109 12.7419
71 109 12.7629
72 109 12.7861
73 109 12.8172
74 109 12.8531
75 109 12.9028
76 109 12.9445
77 109 12.956
78 109 12.8557
79 109 12.6417
80 109 12.3291
81 109 11.9933
82 109 11.6198
83 109 11.201
84 109 10.7269
85 109 10.1566
86 109 9.45288
87 109 8.53699
88 109 7.29674
89 109 5.69293
90 109 3.39074
91 109 0.841036
92 109 -1.57406
93 109 -3.69029
94 109 -5.40979
95 109 -6.7843
96 109 -7.87378
97 109 -8.73501
98 109 -9.41768
99 109 -9.96224
100 109 -10.4001
101 109 -10.755
102 109 -11.0446
103 109 -11.282
104 109 -11.477
105 109 -11.6372
106 109 -11.7683
107 109 -11.8746
108 109 -11.9597
109 109 -12.0263
110 109 -12.0767
111 109 -12.1127
112 109 -12.1357
113 109 -12.1471
114 109 -12.1478
115 109 -12.1387
116 109 -12.1206
117 109 -12.0939
118 109 -12.0593
119 109 -12.0171
0 110 -12.0285
1 110 -11.9717
2 110 -11.9074
3 110 -11.8357
4 110 -11.7569
5 110 -11.671
6 110 -11.578
7 110 -11.4779
8 110 -11.3708
9 110 -11.2564
10 110 -11.1347
11 110 -11.0053
12 110 -10.8681
13 110 -10.7229
14 110 -10.5691
15 110 -10.4065
16 110 -10.2347
17 110 -10.0531
18 110 -9.86145
19 110 -9.65911
20 110 -9.44563
21 110 -9.22047
22 110 -8.98311
23 110 -8.73298
24 110 -8.46955
25 110 -8.19228
26 110 -7.9007
27 110 -7.59455
28 110 -7.27395
29 110 -6.93978
30 110 -6.59444
31 110 -6.24297
32 110 -5.89492
33 110 -5.56703
34 110 -5.28582
35 110 -5.0848
36 110 -4.96879
37 110 -4.70918
38 110 -2.7945
39 110 8.3572
40 110 11.4893
41 110 12.4523
42 110 13.2537
43 110 13.961
44 110 14.5302
45 110 14.9934
46 110 15.3742
47 110 15.7183
48 110 15.9416
49 110 16.0362
50 110 15.9755
51 110 15.767
52 110 15.4432
53 110 15.1448
54 110 14.8093
55 110 14.5021
56 110 14.177
57 110 13.8829
58 110 13.5852
59 110 13.3285
60 110 13.0954
61 110 12.9069
62 110 12.7454
63 110 12.6166
64 110 12.5129
65 110 12.4222
66 110 12.3755
67 110 12.3401
68 110 12.3206
69 110 12.3154
70 110 12.3325
71 110 12.3515
72 110 12.382
73 110 12.4284
74 110 12.4565
75 110 12.4839
76 110 12.4982
77 110 12.4895
78 110 12.3913
79 110 12.1654
80 110 11.8108
81 110 11.4277
82 110 11.0008
83 110 10.4992
84 110 9.94226
85 110 9.25467
86 110 8.43496
87 110 7.41805
88 110 6.15465
89 110 4.6822
90 110 2.95391
91 110 1.78387
92 110 -2.12217
93 110 -4.08847
94 110 -5.56503
95 110 -6.78224
96 110 -7.78661
97 110 -8.60867
98 110 -9.27935
99 110 -9.82726
100 110 -10.2765
101 110 -10.6463
102 110 -10.952
103 110 -11.2051
104 110 -11.4149
105 110 -11.5885
106 110 -11.7315
107 110 -11.8484
108 110 -11.9427
109 110 -12.0174
110 110 -12.0747
111 110 -12.1167
112 110 -12.1449
113 110 -12.1606
114 110 -12.165
115 110 -12.1589
116 110 -12.1431
117 110 -12.1182
118 110 -12.0849
119 110 -12.0435
0 111 -12.0704
1 111 -12.0129
2 111 -11.9475
3 111 -11.8745
4 111 -11.794
5 111 -11.7061
6 111 -11.6108
7 111 -11.508
8 111 -11.3979
9 111 -11.2802
10 111 -11.1548
11 111 -11.0215
12 111 -10.88
13 111 -10.7302
14 111 -10.5716
15 111 -10.4038
16 111 -10.2267
17 111 -10.0396
18 111 -9.84233
19 111 -9.6344
20 111 -9.41545
21 111 -9.18509
22 111 -8.94298
23 111 -8.68873
24 111 -8.42198
25 111 -8.14231
26 111 -7.84933
27 111 -7.54264
28 111 -7.22195
29 111 -6.88721
30 111 -6.53886
31 111 -6.17807
32 111 -5.80689
33 111 -5.42737
34 111 -5.0381
35 111 -4.62411
36 111 -4.1335
37 111 -3.44578
38 111 -2.47086
39 111 7.44292
40 111 10.5402
41 111 11.7767
42 111 12.7713
43 111 13.5804
44 111 14.2169
45 111 14.7294
46 111 15.1508
47 111 15.4842
48 111 15.6552
49 111 15.703
50 111 15.6044
51 111 15.3387
52 111 14.9864
53 111 14.6565
54 111 14.3111
55 111 13.9907
56 111 13.6707
57 111 13.3569
58 111 13.0463
59 111 12.8074
60 111 12.6048
61 111 12.3973
62 111 12.227
63 111 12.1024
64 111 12.0215
65 111 11.9436
66 111 11.9059
67 111 11.8647
68 111 11.8632
69 111 11.8769
70 111 11.9039
71 111 11.9487
72 111 11.9822
73 111 12.0119
74 111 12.0259
75 111 12.0363
76 111 12.0394
77 111 12.0351
78 111 11.9241
79 111 11.6708
80 111 11.3082
81 111 10.8967
82 111 10.4178
83 111 9.85847
84 111 9.22111
85 111 8.45006
86 111 7.57171
87 111 6.48331
88 111 5.19637
89 111 3.70855
90 111 1.8038
91 111 -0.905306
92 111 -4.61001
93 111 -4.97641
94 111 -5.97963
95 111 -6.993
96 111 -7.88178
97 111 -8.63368
98 111 -9.26381
99 111 -9.79097
100 111 -10.2322
101 111 -10.6019
102 111 -10.9118
103 111 -11.1716
104 111 -11.3889
105 111 -11.5703
106 111 -11.7208
107 111 -11.8447
108 111 -11.9454
109 111 -12.0258
110 111 -12.0882
111 111 -12.1346
112 111 -12.1666
113 111 -12.1856
114 111 -12.1926
115 111 -12.1887
116 111 -12.1746
117 111 -12.1511
118 111 -12.1186
119 111 -12.0776
0 112 -12.1203
1 112 -12.0619
2 112 -11.9953
3 112 -11.9208
4 112 -11.8386
5 112 -11.7486
6 112 -11.6509
7 112 -11.5456
8 112 -11.4325
9 112 -11.3117
10 112 -11.1828
11 112 -11.0458
12 112 -10.9003
13 112 -10.7462
14 112 -10.5831
15 112 -10.4107
16 112 -10.2285
17 112 -10.0364
18 112 -9.83386
19 112 -9.62071
20 112 -9.39666
21 112 -9.16148
22 112 -8.91499
23 112 -8.65699
24 112 -8.38731
25 112 -8.10566
26 112 -7.81167
27 112 -7.50474
28 112 -7.18401
29 112 -6.84826
30 112 -6.4957
31 112 -6.12358
32 112 -5.72721
33 112 -5.29744
34 112 -4.8151
35 112 -4.24004
36 112 -3.49533
37 112 -2.46956
38 112 -1.18752
39 112 6.46955
40 112 9.56144
41 112 11.0985
42 112 12.2817
43 112 13.195
44 112 13.9373
45 112 14.5311
46 112 14.9482
47 112 15.1851
48 112 15.2959
49 112 15.288
50 112 15.1286
51 112 14.8158
52 112 14.4403
53 112 14.0884
54 112 13.7521
55 112 13.4117
56 112 13.0841
57 112 12.7701
58 112 12.4771
59 112 12.2278
60 112 12.0088
61 112 11.8438
62 112 11.6889
63 112 11.5811
64 112 11.4991
65 112 11.4352
66 112 11.4055
67 112 11.4035
68 112 11.4224
69 112 11.4548
70 112 11.4967
71 112 11.5172
72 112 11.5432
73 112 11.5728
74 112 11.5965
75 112 11.6007
76 112 11.5977
77 112 11.5607
78 112 11.4423
79 112 11.1687
80 112 10.7999
81 112 10.3683
82 112 9.87146
83 112 9.25321
84 112 8.56407
85 112 7.79067
86 112 6.85048
87 112 5.75405
88 112 4.4587
89 112 2.99774
90 112 1.22952
91 112 -1.25111
92 112 -3.95836
93 112 -5.22751
94 112 -6.38409
95 112 -7.32835
96 112 -8.11381
97 112 -8.78048
98 112 -9.35123
99 112 -9.84058
100 112 -10.2595
101 112 -10.6173
102 112 -10.9219
103 112 -11.1804
104 112 -11.399
105 112 -11.583
106 112 -11.7367
107 112 -11.8641
108 112 -11.9684
109 112 -12.0521
110 112 -12.1176
111 112 -12.1668
112 112 -12.2013
113 112 -12.2224
114 112 -12.2312
115 112 -12.2287
116 112 -12.2157
117 112 -12.1928
118 112 -12.1607
119 112 -12.1197
0 113 -12.1786
1 113 -12.119
2 113 -12.0511
3 113 -11.975
4 113 -11.8908
5 113 -11.7987
6 113 -11.6987
7 113 -11.5908
8 113 -11.475
9 113 -11.3511
10 113 -11.219
11 113 -11.0785
12 113 -10.9294
13 113 -10.7713
14 113 -10.604
15 113 -10.4271
16 113 -10.2404
17 113 -10.0434
18 113 -9.83603
19 113 -9.61793
20 113 -9.389
21 113 -9.14918
22 113 -8.89848
23 113 -8.63695
24 113 -8.3646
25 113 -8.08137
26 113 -7.78694
27 113 -7.48062
28 113 -7.16109
29 113 -6.82611
30 113 -6.47209
31 113 -6.09335
32 113 -5.68094
33 113 -5.22009
34 113 -4.68482
35 113 -4.02563
36 113 -3.13822
37 113 -1.74961
38 113 0.745256
39 113 6.13692
40 113 8.93955
41 113 10.5862
42 113 11.8786
43 113 12.8745
44 113 13.6515
45 113 14.2234
46 113 14.5596
47 113 14.7669
48 113 14.8006
49 113 14.7454
50 113 14.537
51 113 14.2044
52 113 13.8114
53 113 13.4605
54 113 13.1341
55 113 12.794
56 113 12.4762
57 113 12.1653
58 113 11.8676
59 113 11.6252
60 113 11.4012
61 113 11.2407
62 113 11.1125
63 113 11.006
64 113 10.9445
65 113 10.9267
66 113 10.912
67 113 10.9241
68 113 10.9682
69 113 11.0076
70 113 11.0514
71 113 11.0881
72 113 11.1267
73 113 11.1592
74 113 11.1616
75 113 11.1487
76 113 11.1245
77 113 11.0919
78 113 10.9631
79 113 10.6947
80 113 10.3149
81 113 9.8825
82 113 9.34716
83 113 8.73762
84 113 8.02116
85 113 7.19604
86 113 6.26199
87 113 5.13556
88 113 3.84658
89 113 2.45121
90 113 0.874132
91 113 -0.847099
92 113 -1.85651
93 113 -5.5912
94 113 -7.00085
95 113 -7.82251
96 113 -8.46464
97 113 -9.0232
98 113 -9.52004
99 113 -9.96061
100 113 -10.348
101 113 -10.6857
102 113 -10.978
103 113 -11.2292
104 113 -11.4438
105 113 -11.6258
106 113 -11.7791
107 113 -11.9068
108 113 -12.0118
109 113 -12.0967
110 113 -12.1634
111 113 -12.2138
112 113 -12.2494
113 113 -12.2715
114 113 -12.2811
115 113 -12.2792
116 113 -12.2666
117 113 -12.2439
118 113 -12.2116
119 113 -12.1703
0 114 -12.2455
1 114 -12.1845
2 114 -12.115
3 114 -12.0371
4 114 -11.951
5 114 -11.8568
6 114 -11.7545
7 114 -11.6441
8 114 -11.5255
9 114 -11.3988
10 114 -11.2636
11 114 -11.1199
12 114 -10.9673
13 114 -10.8056
14 114 -10.6344
15 114 -10.4535
16 114 -10.2625
17 114 -10.061
18 114 -9.84889
19 114 -9.62597
20 114 -9.39223
21 114 -9.14777
22 114 -8.89282
23 114 -8.62771
24 114 -8.35278
25 114 -8.06827
26 114 -7.77411
27 114 -7.46972
28 114 -7.15362
29 114 -6.82302
30 114 -6.47319
31 114 -6.09679
32 114 -5.6831
33 114 -5.21715
34 114 -4.67848
35 114 -4.03944
36 114 -3.28232
37 114 -2.63355
38 114 3.73587
39 114 6.56221
40 114 8.71968
41 114 10.2494
42 114 11.5184
43 114 12.5059
44 114 13.2462
45 114 13.7641
46 114 14.0542
47 114 14.232
48 114 14.2294
49 114 14.0919
50 114 13.8787
51 114 13.505
52 114 13.1155
53 114 12.778
54 114 12.4434
55 114 12.1174
56 114 11.7855
57 114 11.4727
58 114 11.194
59 114 10.9366
60 114 10.7397
61 114 10.5795
62 114 10.4732
63 114 10.4122
64 114 10.3561
65 114 10.344
66 114 10.3711
67 114 10.4332
68 114 10.5
69 114 10.5541
70 114 10.602
71 114 10.6483
72 114 10.6655
73 114 10.7023
74 114 10.7167
75 114 10.6986
76 114 10.6667
77 114 10.6273
78 114 10.5058
79 114 10.2392
80 114 9.87117
81 114 9.40983
82 114 8.87263
83 114 8.24877
84 114 7.51519
85 114 6.70575
86 114 5.73876
87 114 4.62082
88 114 3.33055
89 114 1.92123
90 114 0.324342
91 114 -1.46136
92 114 -3.192
93 114 -8.27994
94 114 -8.2056
95 114 -8.49622
96 114 -8.89902
97 114 -9.32766
98 114 -9.7451
99 114 -10.1338
100 114 -10.4861
101 114 -10.7997
102 114 -11.0751
103 114 -11.3146
104 114 -11.521
105 114 -11.6975
106 114 -11.8469
107 114 -11.9721
108 114 -12.0755
109 114 -12.1593
110 114 -12.2255
111 114 -12.2756
112 114 -12.311
113 114 -12.333
114 114 -12.3425
115 114 -12.3405
116 114 -12.3276
117 114 -12.3045
118 114 -12.2717
119 114 -12.2296
0 115 -12.3212
1 115 -12.2586
2 115 -12.1873
3 115 -12.1075
4 115 -12.0193
5 115 -11.9229
6 115 -11.8183
7 115 -11.7054
8 115 -11.5843
9 115 -11.4548
10 115 -11.3168
11 115 -11.17
12 115 -11.0143
13 115 -10.8493
14 115 -10.6747
15 115 -10.49
16 115 -10.295
17 115 -10.0892
18 115 -9.87254
19 115 -9.64484
20 115 -9.40617
21 115 -9.15684
22 115 -8.89732
23 115 -8.6283
24 115 -8.35055
25 115 -8.06481
26 115 -7.77151
27 115 -7.47052
28 115 -7.16066
29 115 -6.83915
30 115 -6.50085
31 115 -6.13753
32 115 -5.73751
33 115 -5.28692
34 115 -4.77251
35 115 -4.17135
36 115 -3.31805
37 115 -0.893282
38 115 4.3526
39 115 6.72139
40 115 8.52586
41 115 9.91732
42 115 11.0991
43 115 12.0263
44 115 12.694
45 115 13.1031
46 115 13.3378
47 115 13.4688
48 115 13.4691
49 115 13.2922
50 115 13.072
51 115 12.6924
52 115 12.3261
53 115 12.002
54 115 11.6724
55 115 11.3637
56 115 11.0451
57 115 10.7449
58 115 10.4618
59 115 10.2171
60 115 10.0264
61 115 9.87897
62 115 9.7841
63 115 9.73046
64 115 9.71871
65 115 9.75826
66 115 9.84091
67 115 9.92927
68 115 10.0205
69 115 10.0826
70 115 10.1295
71 115 10.1759
72 115 10.2137
73 115 10.248
74 115 10.2559
75 115 10.2378
76 115 10.2041
77 115 10.1561
78 115 10.0416
79 115 9.78495
80 115 9.40869
81 115 8.98063
82 115 8.4391
83 115 7.82067
84 115 7.1037
85 115 6.26693
86 115 5.33087
87 115 4.2065
88 115 2.88041
89 115 1.45965
90 115 -0.282737
91 115 -2.36932
92 115 -5.47345
93 115 -9.65315
94 115 -9.04539
95 115 -9.05774
96 115 -9.30755
97 115 -9.64333
98 115 -9.99887
99 115 -10.3435
100 115 -10.663
101 115 -10.9518
102 115 -11.2082
103 115 -11.4331
104 115 -11.6283
105 115 -11.7961
106 115 -11.939
107 115 -12.0592
108 115 -12.1588
109 115 -12.2397
110 115 -12.3036
111 115 -12.352
112 115 -12.3861
113 115 -12.4069
114 115 -12.4155
115 115 -12.4126
116 115 -12.3988
117 115 -12.3748
118 115 -12.341
119 115 -12.2978
0 116 -12.4058
1 116 -12.3413
2 116 -12.268
3 116 -12.1862
4 116 -12.0959
5 116 -11.9973
6 116 -11.8903
7 116 -11.775
8 116 -11.6514
9 116 -11.5193
10 116 -11.3787
11 116 -11.2292
12 116 -11.0707
13 116 -10.9027
14 116 -10.7249
15 116 -10.5369
16 116 -10.3381
17 116 -10.1284
18 116 -9.90723
19 116 -9.67466
20 116 -9.4308
21 116 -9.17609
22 116 -8.91132
23 116 -8.63761
24 116 -8.35632
25 116 -8.0689
26 116 -7.77661
27 116 -7.4802
28 116 -7.17936
29 116 -6.87206
30 116 -6.55354
31 116 -6.21497
32 116 -5.84251
33 116 -5.42053
34 116 -4.95329
35 116 -4.55539
36 116 -4.78358
37 116 2.50659
38 116 5.11307
39 116 6.83183
40 116 8.36211
41 116 9.62313
42 116 10.6093
43 116 11.3328
44 116 11.866
45 116 12.1682
46 116 12.3533
47 116 12.4651
48 116 12.4214
49 116 12.2961
50 116 12.0855
51 116 11.7594
52 116 11.4381
53 116 11.1378
54 116 10.8322
55 116 10.5465
56 116 10.2269
57 116 9.92669
58 116 9.66755
59 116 9.43878
60 116 9.27748
61 116 9.13567
62 116 9.06964
63 116 9.0552
64 116 9.0893
65 116 9.18215
66 116 9.2795
67 116 9.36933
68 116 9.4922
69 116 9.58473
70 116 9.65262
71 116 9.7075
72 116 9.74472
73 116 9.77355
74 116 9.7875
75 116 9.7879
76 116 9.75471
77 116 9.69965
78 116 9.58978
79 116 9.34758
80 116 8.99815
81 116 8.59445
82 116 8.06931
83 116 7.46176
84 116 6.74379
85 116 5.93593
86 116 4.97462
87 116 3.85605
88 116 2.53719
89 116 1.08303
90 116 -0.695256
91 116 -2.88928
92 116 -5.67827
93 116 -9.33605
94 116 -9.26505
95 116 -9.3818
96 116 -9.63011
97 116 -9.93924
98 116 -10.2636
99 116 -10.5782
100 116 -10.8708
101 116 -11.1361
102 116 -11.3728
103 116 -11.5812
104 116 -11.7629
105 116 -11.9198
106 116 -12.0538
107 116 -12.1668
108 116 -12.2607
109 116 -12.3371
110 116 -12.3973
111 116 -12.4427
112 116 -12.4743
113 116 -12.4932
114 116 -12.5
115 116 -12.4955
116 116 -12.4803
117 116 -12.4549
118 116 -12.4196
119 116 -12.375
0 117 -12.4992
1 117 -12.4327
2 117 -12.3574
3 117 -12.2734
4 117 -12.1809
5 117 -12.08
6 117 -11.9707
7 117 -11.853
8 117 -11.727
9 117 -11.5925
10 117 -11.4494
11 117 -11.2975
12 117 -11.1365
13 117 -10.9659
14 117 -10.7854
15 117 -10.5944
16 117 -10.3924
17 117 -10.1788
18 117 -9.95336
19 117 -9.71579
20 117 -9.46627
21 117 -9.20539
22 117 -8.93426
23 117 -8.6545
24 117 -8.36822
25 117 -8.07785
26 117 -7.78584
27 117 -7.4943
28 117 -7.20451
29 117 -6.9162
30 117 -6.62629
31 117 -6.3263
32 117 -5.99705
33 117 -5.59939
34 117 -5.06472
35 117 -4.31335
36 117 -3.41275
37 117 2.93681
38 117 5.13253
39 117 6.82999
40 117 8.13977
41 117 9.24811
42 117 10.1182
43 117 10.5856
44 117 10.9276
45 117 11.0954
46 117 11.2028
47 117 11.2693
48 117 11.2286
49 117 11.1443
50 117 10.964
51 117 10.7114
52 117 10.4751
53 117 10.2161
54 117 9.92554
55 117 9.65662
56 117 9.35231
57 117 9.05733
58 117 8.81278
59 117 8.62544
60 117 8.48207
61 117 8.37824
62 117 8.3731
63 117 8.40512
64 117 8.48824
65 117 8.58606
66 117 8.67203
67 117 8.79527
68 117 8.94027
69 117 9.06273
70 117 9.15981
71 117 9.22313
72 117 9.27368
73 117 9.31111
74 117 9.32981
75 117 9.31432
76 117 9.28617
77 117 9.23728
78 117 9.151
79 117 8.9314
80 117 8.60414
81 117 8.22323
82 117 7.7564
83 117 7.1617
84 117 6.46
85 117 5.62812
86 117 4.67575
87 117 3.56215
88 117 2.28572
89 117 0.85645
90 117 -0.929416
91 117 -3.06344
92 117 -5.66728
93 117 -9.07969
94 117 -9.29698
95 117 -9.5743
96 117 -9.89184
97 117 -10.2199
98 117 -10.538
99 117 -10.8349
100 117 -11.1058
101 117 -11.3492
102 117 -11.5656
103 117 -11.7561
104 117 -11.9224
105 117 -12.0663
106 117 -12.1895
107 117 -12.2936
108 117 -12.3802
109 117 -12.4505
110 117 -12.5059
111 117 -12.5472
112 117 -12.5755
113 117 -12.5914
114 117 -12.5958
115 117 -12.5892
116 117 -12.572
117 117 -12.5447
118 117 -12.5077
119 117 -12.4613
0 118 -12.6017
1 118 -12.5329
2 118 -12.4554
3 118 -12.3691
4 118 -12.2743
5 118 -12.171
6 118 -12.0594
7 118 -11.9393
8 118 -11.811
9 118 -11.6742
10 118 -11.5289
11 118 -11.3749
12 118 -11.2117
13 118 -11.0391
14 118 -10.8564
15 118 -10.663
16 118 -10.4582
17 118 -10.2412
18 118 -10.0116
19 118 -9.76885
20 118 -9.5131
21 118 -9.24496
22 118 -8.96583
23 118 -8.6779
24 118 -8.38422
25 118 -8.08844
26 118 -7.79459
27 118 -7.50665
28 118 -7.22819
29 118 -6.96194
30 118 -6.70911
31 118 -6.46689
32 118 -6.21999
33 118 -5.91527
34 118 -5.39286
35 118 -4.22053
36 118 -1.82864
37 118 3.04165
38 118 5.11613
39 118 6.70531
40 118 8.00468
41 118 8.8975
42 118 9.46111
43 118 9.92094
44 118 10.0829
45 118 10.2082
46 118 10.276
47 118 10.2962
48 118 10.2685
49 118 10.1562
50 118 9.98171
51 118 9.74994
52 118 9.4801
53 118 9.23467
54 118 8.99415
55 118 8.7418
56 118 8.45832
57 118 8.17025
58 118 7.95818
59 118 7.79069
60 118 7.71146
61 118 7.65972
62 118 7.69893
63 118 7.78831
64 118 7.87574
65 118 7.97009
66 118 8.07881
67 118 8.20787
68 118 8.36032
69 118 8.51063
70 118 8.62909
71 118 8.71693
72 118 8.77255
73 118 8.81321
74 118 8.84056
75 118 8.86083
76 118 8.84291
77 118 8.8014
78 118 8.72867
79 118 8.52153
80 118 8.23927
81 118 7.89903
82 118 7.44928
83 118 6.91818
84 118 6.20358
85 118 5.38511
86 118 4.43357
87 118 3.35457
88 118 2.13171
89 118 0.758853
90 118 -0.953286
91 118 -3.09489
92 118 -5.84907
93 118 -8.80336
94 118 -9.26888
95 118 -9.7266
96 118 -10.143
97 118 -10.5107
98 118 -10.8336
99 118 -11.1177
100 118 -11.3683
101 118 -11.5894
102 118 -11.7842
103 118 -11.9551
104 118 -12.1043
105 118 -12.2335
106 118 -12.3443
107 118 -12.438
108 118 -12.5159
109 118 -12.579
110 118 -12.6284
111 118 -12.6647
112 118 -12.6888
113 118 -12.7013
114 118 -12.7026
115 118 -12.6933
116 118 -12.6738
117 118 -12.6443
118 118 -12.6053
119 118 -12.5568
0 119 -12.7131
1 119 -12.642
2 119 -12.562
3 119 -12.4734
4 119 -12.3762
5 119 -12.2705
6 119 -12.1564
7 119 -12.034
8 119 -11.9034
9 119 -11.7645
10 119 -11.6172
11 119 -11.4613
12 119 -11.2965
13 119 -11.1223
14 119 -10.9381
15 119 -10.743
16 119 -10.5361
17 119 -10.3164
18 119 -10.0829
19 119 -9.83493
20 119 -9.5723
21 119 -9.29553
22 119 -9.00618
23 119 -8.70707
24 119 -8.4023
25 119 -8.09709
26 119 -7.79743
27 119 -7.50954
28 119 -7.23965
29 119 -6.99425
30 119 -6.78134
31 119 -6.61217
32 119 -6.50074
33 119 -6.44883
34 119 -6.37092
35 119 -5.78692
36 119 0.999079
37 119 3.46077
38 119 5.21042
39 119 6.66947
40 119 7.71331
41 119 8.59087
42 119 9.00851
43 119 9.15907
44 119 9.25057
45 119 9.32045
46 119 9.39426
47 119 9.42601
48 119 9.39727
49 119 9.2706
50 119 9.09692
51 119 8.86417
52 119 8.58216
53 119 8.30632
54 119 8.03857
55 119 7.7869
56 119 7.5227
57 119 7.29237
58 119 7.12188
59 119 7.02002
60 119 6.99188
61 119 6.99172
62 119 7.06652
63 119 7.16354
64 119 7.24108
65 119 7.35591
66 119 7.466
67 119 7.59793
68 119 7.75132
69 119 7.92844
70 119 8.07522
71 119 8.18869
72 119 8.29392
73 119 8.34712
74 119 8.38461
75 119 8.39615
76 119 8.38937
77 119 8.36534
78 119 8.30531
79 119 8.13805
80 119 7.91435
81 119 7.61568
82 119 7.21335
83 119 6.67198
84 119 5.97079
85 119 5.15327
86 119 4.23876
87 119 3.18949
88 119 2.04265
89 119 0.746773
90 119 -0.87452
91 119 -2.9065
92 119 -5.63896
93 119 -8.49142
94 119 -9.24857
95 119 -9.9202
96 119 -10.4428
97 119 -10.8463
98 119 -11.168
99 119 -11.434
100 119 -11.6602
101 119 -11.8559
102 119 -12.0266
103 119 -12.176
104 119 -12.3063
105 119 -12.4192
106 119 -12.5162
107 119 -12.5982
108 119 -12.6664
109 119 -12.7214
110 119 -12.7639
111 119 -12.7945
112 119 -12.8139
113 119 -12.8222
114 119 -12.8201
115 119 -12.8078
116 119 -12.7855
117 119 -12.7536
118 119 -12.7122
119 119 -12.6615
0 120 -12.8334
1 120 -12.7598
2 120 -12.6774
3 120 -12.5863
4 120 -12.4865
5 120 -12.3783
6 120 -12.2618
7 120 -12.137
8 120 -12.0041
9 120 -11.8631
10 120 -11.714
11 120 -11.5567
12 120 -11.3907
13 120 -11.2156
14 120 -11.0307
15 120 -10.8348
16 120 -10.6268
17 120 -10.4053
18 120 -10.1686
19 120 -9.9157
20 120 -9.64565
21 120 -9.35867
22 120 -9.0563
23 120 -8.74191
24 120 -8.42082
25 120 -8.10021
26 120 -7.78849
27 120 -7.49444
28 120 -7.22663
29 120 -6.99408
30 120 -6.8098
31 120 -6.69972
32 120 -6.72198
33 120 -7.00838
34 120 -7.85508
35 120 -4.01826
36 120 1.25845
37 120 3.5326
38 120 5.04984
39 120 6.46356
40 120 7.6248
41 120 8.04774
42 120 8.26112
43 120 8.38095
44 120 8.53661
45 120 8.63578
46 120 8.66921
47 120 8.69282
48 120 8.63268
49 120 8.51011
50 120 8.33355
51 120 8.05896
52 120 7.77103
53 120 7.47968
54 120 7.17678
55 120 6.91582
56 120 6.69307
57 120 6.51137
58 120 6.38277
59 120 6.33883
60 120 6.34872
61 120 6.38883
62 120 6.47008
63 120 6.52975
64 120 6.61582
65 120 6.72048
66 120 6.81999
67 120 6.95545
68 120 7.12489
69 120 7.31636
70 120 7.49121
71 120 7.63937
72 120 7.75959
73 120 7.84878
74 120 7.90542
75 120 7.92659
76 120 7.93854
77 120 7.93026
78 120 7.89313
79 120 7.77248
80 120 7.58421
81 120 7.33637
82 120 6.95791
83 120 6.43824
84 120 5.7648
85 120 4.9603
86 120 4.06327
87 120 3.07561
88 120 1.97092
89 120 0.77393
90 120 -0.722585
91 120 -2.57737
92 120 -5.15333
93 120 -7.94477
94 120 -9.31377
95 120 -10.2628
96 120 -10.8618
97 120 -11.2637
98 120 -11.558
99 120 -11.79
100 120 -11.9826
101 120 -12.1473
102 120 -12.2905
103 120 -12.4159
104 120 -12.5255
105 120 -12.6208
106 120 -12.7029
107 120 -12.7724
108 120 -12.83
109 120 -12.8761
110 120 -12.9112
111 120 -12.9357
112 120 -12.9498
113 120 -12.9537
114 120 -12.9478
115 120 -12.9321
116 120 -12.9069
117 120 -12.8723
118 120 -12.8283
119 120 -12.7752
0 121 -12.9627
1 121 -12.8865
2 121 -12.8015
3 121 -12.7078
4 121 -12.6054
5 121 -12.4945
6 121 -12.3753
7 121 -12.2481
8 121 -12.1129
9 121 -11.9699
10 121 -11.8192
11 121 -11.6606
12 121 -11.494
13 121 -11.3188
14 121 -11.1341
15 121 -10.9388
16 121 -10.7311
17 121 -10.5092
18 121 -10.2707
19 121 -10.0136
20 121 -9.73594
21 121 -9.43719
22 121 -9.11845
23 121 -8.78344
24 121 -8.43887
25 121 -8.09445
26 121 -7.76189
27 121 -7.4531
28 121 -7.17834
29 121 -6.94563
30 121 -6.76408
31 121 -6.65493
32 121 -6.67908
33 121 -7.00765
34 121 -8.09742
35 121 0.986325
36 121 1.52714
37 121 2.27002
38 121 4.77598
39 121 6.32477
40 121 6.9701
41 121 7.19411
42 121 7.40235
43 121 7.54322
44 121 7.68195
45 121 7.81162
46 121 7.92402
47 121 7.99087
48 121 7.94193
49 121 7.87124
50 121 7.6729
51 121 7.37703
52 121 7.03305
53 121 6.7077
54 121 6.42251
55 121 6.17689
56 121 5.97494
57 121 5.84187
58 121 5.74945
59 121 5.72305
60 121 5.74867
61 121 5.77933
62 121 5.82499
63 121 5.88107
64 121 5.95039
65 121 6.04055
66 121 6.13754
67 121 6.28595
68 121 6.45698
69 121 6.66203
70 121 6.87967
71 121 7.06171
72 121 7.21613
73 121 7.3258
74 121 7.41275
75 121 7.46601
76 121 7.47522
77 121 7.47943
78 121 7.47087
79 121 7.39171
80 121 7.2561
81 121 7.02921
82 121 6.67278
83 121 6.18439
84 121 5.5399
85 121 4.76354
86 121 3.89526
87 121 2.94862
88 121 1.91646
89 121 0.797672
90 121 -0.569621
91 121 -2.33793
92 121 -4.53992
93 121 -6.28526
94 121 -9.7989
95 121 -10.9556
96 121 -11.4778
97 121 -11.7887
98 121 -12.0103
99 121 -12.1857
100 121 -12.3328
101 121 -12.4602
102 121 -12.5723
103 121 -12.6715
104 121 -12.759
105 121 -12.8358
106 121 -12.9021
107 121 -12.9585
108 121 -13.005
109 121 -13.0419
110 121 -13.0693
111 121 -13.0872
112 121 -13.0958
113 121 -13.0951
114 121 -13.0852
115 121 -13.066
116 121 -13.0377
117 121 -13.0002
118 121 -12.9537
119 121 -12.898
0 122 -13.1009
1 122 -13.0221
2 122 -12.9344
3 122 -12.8379
4 122 -12.7327
5 122 -12.619
6 122 -12.497
7 122 -12.3671
8 122 -12.2294
9 122 -12.0844
10 122 -11.9321
11 122 -11.7727
12 122 -11.6059
13 122 -11.4314
14 122 -11.2483
15 122 -11.055
16 122 -10.8497
17 122 -10.6296
18 122 -10.3915
19 122 -10.1319
20 122 -9.84735
21 122 -9.53569
22 122 -9.1969
23 122 -8.83452
24 122 -8.45676
25 122 -8.07683
26 122 -7.71152
27 122 -7.37772
28 122 -7.08801
29 122 -6.84602
30 122 -6.64595
31 122 -6.47685
32 122 -6.33177
33 122 -6.24569
34 122 -6.63497
35 122 -0.856888
36 122 0.0771784
37 122 2.00309
38 122 4.38571
39 122 5.36478
40 122 5.88093
41 122 6.12911
42 122 6.3954
43 122 6.55306
44 122 6.72843
45 122 6.90711
46 122 7.05266
47 122 7.16381
48 122 7.18206
49 122 7.12792
50 122 6.99114
51 122 6.73493
52 122 6.42383
53 122 6.07664
54 122 5.77459
55 122 5.55279
56 122 5.37178
57 122 5.24989
58 122 5.16947
59 122 5.14989
60 122 5.13494
61 122 5.13694
62 122 5.15529
63 122 5.19816
64 122 5.25663
65 122 5.34037
66 122 5.46522
67 122 5.60996
68 122 5.78932
69 122 5.99339
70 122 6.23078
71 122 6.43879
72 122 6.61198
73 122 6.76588
74 122 6.88838
75 122 6.96293
76 122 7.01116
77 122 7.03893
78 122 7.04796
79 122 6.99964
80 122 6.89309
81 122 6.68469
82 122 6.36713
83 122 5.90096
84 122 5.2713
85 122 4.55017
86 122 3.71817
87 122 2.83551
88 122 1.85612
89 122 0.810283
90 122 -0.525211
91 122 -2.24697
92 122 -4.91351
93 122 -8.33975
94 122 -12.641
95 122 -12.2826
96 122 -12.3054
97 122 -12.4029
98 122 -12.5088
99 122 -12.6095
100 122 -12.7027
101 122 -12.7884
102 122 -12.8671
103 122 -12.9387
104 122 -13.0034
105 122 -13.061
106 122 -13.1114
107 122 -13.1544
108 122 -13.1897
109 122 -13.2172
110 122 -13.2367
111 122 -13.2481
112 122 -13.2512
113 122 -13.2458
114 122 -13.2318
115 122 -13.2091
116 122 -13.1777
117 122 -13.1373
118 122 -13.0881
119 122 -13.0298
0 123 -13.248
1 123 -13.1666
2 123 -13.0762
3 123 -12.9767
4 123 -12.8685
5 123 -12.7517
6 123 -12.6266
7 123 -12.4937
8 123 -12.3534
9 123 -12.2061
10 123 -12.0522
11 123 -11.892
12 123 -11.7256
13 123 -11.5527
14 123 -11.3724
15 123 -11.1834
16 123 -10.9831
17 123 -10.7681
18 123 -10.5339
19 123 -10.2751
20 123 -9.98588
21 123 -9.66132
22 123 -9.29893
23 123 -8.90097
24 123 -8.47684
25 123 -8.0446
26 123 -7.62964
27 123 -7.25824
28 123 -6.94996
29 123 -6.70448
30 123 -6.49687
31 123 -6.27472
32 123 -5.92548
33 123 -5.00839
34 123 -5.73704
35 123 -3.09992
36 123 -0.735174
37 123 2.23708
38 123 3.58179
39 123 4.46144
40 123 4.78695
41 123 5.02892
42 123 5.27472
43 123 5.44278
44 123 5.62757
45 123 5.88713
46 123 6.12344
47 123 6.30431
48 123 6.36897
49 123 6.35149
50 123 6.27538
51 123 6.09212
52 123 5.8659
53 123 5.552
54 123 5.22135
55 123 5.00497
56 123 4.8246
57 123 4.70967
58 123 4.63066
59 123 4.56184
60 123 4.50665
61 123 4.46377
62 123 4.44653
63 123 4.45385
64 123 4.51802
65 123 4.59996
66 123 4.74053
67 123 4.91794
68 123 5.08661
69 123 5.29768
70 123 5.54846
71 123 5.77299
72 123 5.97361
73 123 6.14086
74 123 6.29345
75 123 6.41317
76 123 6.50332
77 123 6.57342
78 123 6.60898
79 123 6.57027
80 123 6.47109
81 123 6.28634
82 123 5.99296
83 123 5.54434
84 123 4.98223
85 123 4.31408
86 123 3.53994
87 123 2.70201
88 123 1.77765
89 123 0.787299
90 123 -0.485285
91 123 -2.24409
92 123 -5.00005
93 123 -8.86206
94 123 -13.665
95 123 -13.2286
96 123 -13.0581
97 123 -13.0086
98 123 -13.0127
99 123 -13.0409
100 123 -13.08
101 123 -13.1238
102 123 -13.1688
103 123 -13.2129
104 123 -13.2549
105 123 -13.2936
106 123 -13.3281
107 123 -13.3579
108 123 -13.3822
109 123 -13.4005
110 123 -13.4124
111 123 -13.4173
112 123 -13.415
113 123 -13.405
114 123 -13.3871
115 123 -13.361
116 123 -13.3265
117 123 -13.2834
118 123 -13.2314
119 123 -13.1706
0 124 -13.4042
1 124 -13.3202
2 124 -13.2269
3 124 -13.1244
4 124 -13.0129
5 124 -12.8927
6 124 -12.7641
7 124 -12.6278
8 124 -12.4844
9 124 -12.3344
10 124 -12.1786
11 124 -12.0176
12 124 -11.8518
13 124 -11.6813
14 124 -11.5055
15 124 -11.3229
16 124 -11.1311
17 124 -10.9258
18 124 -10.7009
19 124 -10.4487
20 124 -10.1598
21 124 -9.82478
22 124 -9.43653
23 124 -8.99361
24 124 -8.50502
25 124 -7.99508
26 124 -7.50422
27 124 -7.07564
28 124 -6.7491
29 124 -6.52507
30 124 -6.36233
31 124 -6.19969
32 124 -6.08703
33 124 -7.20283
34 124 -6.32607
35 124 -3.90168
36 124 -0.170393
37 124 1.64116
38 124 2.94716
39 124 3.53435
40 124 3.85535
41 124 4.12939
42 124 4.37314
43 124 4.5343
44 124 4.70476
45 124 4.86754
46 124 5.06951
47 124 5.31618
48 124 5.48771
49 124 5.57065
50 124 5.56067
51 124 5.44307
52 124 5.27755
53 124 5.0534
54 124 4.75256
55 124 4.51244
56 124 4.34372
57 124 4.2258
58 124 4.12793
59 124 4.02877
60 124 3.90225
61 124 3.79537
62 124 3.72778
63 124 3.70923
64 124 3.71616
65 124 3.82336
66 124 3.97511
67 124 4.15711
68 124 4.3549
69 124 4.57828
70 124 4.82788
71 124 5.08545
72 124 5.33023
73 124 5.51615
74 124 5.68497
75 124 5.81845
76 124 5.93093
77 124 6.00383
78 124 6.03804
79 124 6.05978
80 124 5.99101
81 124 5.83327
82 124 5.54975
83 124 5.16164
84 124 4.67341
85 124 4.06654
86 124 3.33452
87 124 2.53245
88 124 1.66401
89 124 0.713642
90 124 -0.479755
91 124 -2.15968
92 124 -4.9787
93 124 -8.97245
94 124 -14.2238
95 124 -13.9088
96 124 -13.6897
97 124 -13.5608
98 124 -13.4924
99 124 -13.4613
100 124 -13.4527
101 124 -13.4579
102 124 -13.4713
103 124 -13.4894
104 124 -13.5096
105 124 -13.5302
106 124 -13.5497
107 124 -13.5668
108 124 -13.5807
109 124 -13.5903
110 124 -13.5949
111 124 -13.5938
112 124 -13.5864
113 124 -13.5722
114 124 -13.5506
115 124 -13.5214
116 124 -13.484
117 124 -13.4382
118 124 -13.3837
119 124 -13.3203
0 125 -13.5697
1 125 -13.483
2 125 -13.3868
3 125 -13.281
4 125 -13.166
5 125 -13.0419
6 125 -12.9094
7 125 -12.7691
8 125 -12.6218
9 125 -12.4685
10 125 -12.3102
11 125 -12.148
12 125 -11.9827
13 125 -11.8152
14 125 -11.6452
15 125 -11.4718
16 125 -11.2926
17 125 -11.103
18 125 -10.8953
19 125 -10.6589
20 125 -10.3797
21 125 -10.0415
22 125 -9.62881
23 125 -9.13193
24 125 -8.55456
25 125 -7.92647
26 125 -7.31652
27 125 -6.79102
28 125 -6.44574
29 125 -6.28438
30 125 -6.2277
31 125 -6.07469
32 125 -5.0201
33 125 -8.09395
34 125 -6.63203
35 125 -3.00336
36 125 -0.581391
37 125 1.19712
38 125 2.23774
39 125 2.78273
40 125 3.19779
41 125 3.45473
42 125 3.67807
43 125 3.83497
44 125 4.00926
45 125 4.16538
46 125 4.33713
47 125 4.50108
48 125 4.66221
49 125 4.78881
50 125 4.82093
51 125 4.79747
52 125 4.68862
53 125 4.5435
54 125 4.33375
55 125 4.09601
56 125 3.92637
57 125 3.78523
58 125 3.65806
59 125 3.50438
60 125 3.34601
61 125 3.16449
62 125 3.0103
63 125 2.92397
64 125 2.9349
65 125 3.05328
66 125 3.22402
67 125 3.41621
68 125 3.62597
69 125 3.85489
70 125 4.07559
71 125 4.31505
72 125 4.52616
73 125 4.72364
74 125 4.9229
75 125 5.07686
76 125 5.21646
77 125 5.30352
78 125 5.35043
79 125 5.37181
80 125 5.333
81 125 5.19874
82 125 4.95613
83 125 4.64884
84 125 4.31861
85 125 3.78459
86 125 3.13646
87 125 2.37927
88 125 1.53876
89 125 0.612384
90 125 -0.502297
91 125 -2.08953
92 125 -4.87104
93 125 -9.34811
94 125 -14.8425
95 125 -14.4931
96 125 -14.2313
97 125 -14.0524
98 125 -13.9347
99 125 -13.8591
100 125 -13.8118
101 125 -13.7839
102 125 -13.7692
103 125 -13.7636
104 125 -13.764
105 125 -13.7679
106 125 -13.7735
107 125 -13.7791
108 125 -13.7834
109 125 -13.785
110 125 -13.7831
111 125 -13.7766
112 125 -13.7647
113 125 -13.7467
114 125 -13.7219
115 125 -13.6898
116 125 -13.6498
117 125 -13.6016
118 125 -13.5448
119 125 -13.4791
0 126 -13.7446
1 126 -13.6554
2 126 -13.5562
3 126 -13.447
4 126 -13.3281
5 126 -13.1997
6 126 -13.0625
7 126 -12.9174
8 126 -12.7653
9 126 -12.6075
10 126 -12.4457
11 126 -12.2813
12 126 -12.1161
13 126 -11.9514
14 126 -11.7883
15 126 -11.6266
16 126 -11.4647
17 126 -11.2981
18 126 -11.1184
19 126 -10.912
20 126 -10.6587
21 126 -10.3327
22 126 -9.90529
23 126 -9.35075
24 126 -8.65479
25 126 -7.83974
26 126 -7.04437
27 126 -6.32617
28 126 -5.95845
29 126 -5.93901
30 126 -6.18938
31 126 -6.85128
32 126 -8.16272
33 126 -10.9625
34 126 -6.10394
35 126 -3.01223
36 126 -0.917885
37 126 0.582623
38 126 1.48737
39 126 2.20612
40 126 2.73524
41 126 3.02957
42 126 3.21171
43 126 3.34517
