ply
format ascii 1.0
comment Created by Open3D
element vertex 3117
property double x
property double y
property double z
end_header
84 133 12.8466
85 133 12.4643
86 133 12.0163
87 133 11.4693
88 133 10.8412
89 133 10.0918
90 133 8.80244
91 133 6.44587
92 133 4.37561
93 133 -3.49953
94 133 -466.364
95 133 -466.364
96 133 -466.364
97 133 -466.364
98 133 -466.364
99 133 -466.364
100 133 -466.364
101 133 -466.364
102 133 -466.364
103 133 -466.364
104 133 -466.364
105 133 -466.364
106 133 -466.364
107 133 -466.364
108 133 -466.364
109 133 -466.364
110 133 -466.364
111 133 -466.364
112 133 -466.364
113 133 -466.364
114 133 -466.364
115 133 -466.364
116 133 -466.364
117 133 -466.364
118 133 -466.364
119 133 -466.364
0 134 -466.364
1 134 -466.364
2 134 -466.364
3 134 -466.364
4 134 -466.364
5 134 -466.364
6 134 -466.364
7 134 -466.364
8 134 -466.364
9 134 -466.364
10 134 -466.364
11 134 -466.364
12 134 -466.364
13 134 -466.364
14 134 -466.364
15 134 -466.364
16 134 -466.364
17 134 -466.364
18 134 -466.364
19 134 -466.364
20 134 -466.364
21 134 -1.96061
22 134 -0.0897626
23 134 1.372
24 134 2.4521
25 134 3.27293
26 134 3.81627
27 134 4.08033
28 134 4.20925
29 134 4.30451
30 134 4.13409
31 134 4.42917
32 134 5.40676
33 134 6.84847
34 134 8.7323
35 134 10.525
36 134 11.8274
37 134 12.9193
38 134 13.8184
39 134 14.5844
40 134 15.1657
41 134 15.5549
42 134 15.8924
43 134 16.1677
44 134 16.3767
45 134 16.5444
46 134 16.6888
47 134 16.807
48 134 16.8425
49 134 16.8283
50 134 16.7992
51 134 16.765
52 134 16.7062
53 134 16.6047
54 134 16.4021
55 134 16.0802
56 134 15.7217
57 134 15.3539
58 134 14.9504
59 134 14.5252
60 134 14.0867
61 134 13.6
62 134 13.1145
63 134 12.6994
64 134 12.4291
65 134 12.2763
66 134 12.2587
67 134 12.2921
68 134 12.3713
69 134 12.4433
70 134 12.5268
71 134 12.6647
72 134 12.8067
73 134 12.9314
74 134 13.0576
75 134 13.1831
76 134 13.3182
77 134 13.4445
78 134 13.5548
79 134 13.6859
80 134 13.7899
81 134 13.847
82 134 13.835
83 134 13.7251
84 134 13.5202
85 134 13.1698
86 134 12.7135
87 134 12.2074
88 134 11.6168
89 134 11.0075
90 134 9.93394
91 134 8.05728
92 134 5.58064
93 134 -2.12091
94 134 -466.364
95 134 -466.364
96 134 -466.364
97 134 -466.364
98 134 -466.364
99 134 -466.364
100 134 -466.364
101 134 -466.364
102 134 -466.364
103 134 -466.364
104 134 -466.364
105 134 -466.364
106 134 -466.364
107 134 -466.364
108 134 -466.364
109 134 -466.364
110 134 -466.364
111 134 -466.364
112 134 -466.364
113 134 -466.364
114 134 -466.364
115 134 -466.364
116 134 -466.364
117 134 -466.364
118 134 -466.364
119 134 -466.364
0 135 -466.364
1 135 -466.364
2 135 -466.364
3 135 -466.364
4 135 -466.364
5 135 -466.364
6 135 -466.364
7 135 -466.364
8 135 -466.364
9 135 -466.364
10 135 -466.364
11 135 -466.364
12 135 -466.364
13 135 -466.364
14 135 -466.364
15 135 -466.364
16 135 -466.364
17 135 -466.364
18 135 -466.364
19 135 -466.364
20 135 -1.55899
21 135 -0.298938
22 135 0.931965
23 135 2.12046
24 135 3.02806
25 135 3.60047
26 135 3.9295
27 135 4.21126
28 135 4.39854
29 135 4.50643
30 135 4.40843
31 135 4.80377
32 135 5.68749
33 135 6.80689
34 135 8.30022
35 135 10.0373
36 135 11.3852
37 135 12.5006
38 135 13.4119
39 135 14.1938
40 135 14.7852
41 135 15.1951
42 135 15.5768
43 135 15.8716
44 135 16.0995
45 135 16.2703
46 135 16.4173
47 135 16.5251
48 135 16.5815
49 135 16.5849
50 135 16.5497
51 135 16.5035
52 135 16.4584
53 135 16.3894
54 135 16.2659
55 135 16.0254
56 135 15.6814
57 135 15.3364
58 135 14.9696
59 135 14.5789
60 135 14.1829
61 135 13.7475
62 135 13.2777
63 135 12.8885
64 135 12.6257
65 135 12.49
66 135 12.4883
67 135 12.5141
68 135 12.5605
69 135 12.6461
70 135 12.7404
71 135 12.8897
72 135 13.0458
73 135 13.187
74 135 13.3182
75 135 13.4614
76 135 13.6047
77 135 13.7456
78 135 13.8851
79 135 14.0496
80 135 14.1857
81 135 14.2733
82 135 14.2982
83 135 14.2371
84 135 14.1276
85 135 13.8368
86 135 13.4195
87 135 12.9198
88 135 12.3428
89 135 11.7762
90 135 10.9236
91 135 9.53408
92 135 7.26249
93 135 -0.0799992
94 135 -466.364
95 135 -466.364
96 135 -466.364
97 135 -466.364
98 135 -466.364
99 135 -466.364
100 135 -466.364
101 135 -466.364
102 135 -466.364
103 135 -466.364
104 135 -466.364
105 135 -466.364
106 135 -466.364
107 135 -466.364
108 135 -466.364
109 135 -466.364
110 135 -466.364
111 135 -466.364
112 135 -466.364
113 135 -466.364
114 135 -466.364
115 135 -466.364
116 135 -466.364
117 135 -466.364
118 135 -466.364
119 135 -466.364
0 136 -466.364
1 136 -466.364
2 136 -466.364
3 136 -466.364
4 136 -466.364
5 136 -466.364
6 136 -466.364
7 136 -466.364
8 136 -466.364
9 136 -466.364
10 136 -466.364
11 136 -466.364
12 136 -466.364
13 136 -466.364
14 136 -466.364
15 136 -466.364
16 136 -466.364
17 136 -466.364
18 136 -466.364
19 136 -2.13489
20 136 -0.0810642
21 136 0.841594
22 136 1.81983
23 136 2.67706
24 136 3.26104
25 136 3.69512
26 136 4.04671
27 136 4.31676
28 136 4.52959
29 136 4.67644
30 136 4.651
31 136 5.11832
32 136 5.8268
33 136 6.76126
34 136 8.03988
35 136 9.63533
36 136 10.9508
37 136 12.0551
38 136 12.9441
39 136 13.7623
40 136 14.3652
41 136 14.8175
42 136 15.2099
43 136 15.5237
44 136 15.7784
45 136 15.9632
46 136 16.1183
47 136 16.2278
48 136 16.3082
49 136 16.3165
50 136 16.2893
51 136 16.2574
52 136 16.2027
53 136 16.1279
54 136 16.0612
55 136 15.9026
56 136 15.6127
57 136 15.303
58 136 14.966
59 136 14.6185
60 136 14.2505
61 136 13.8863
62 136 13.448
63 136 13.0684
64 136 12.8399
65 136 12.7389
66 136 12.7162
67 136 12.7179
68 136 12.7572
69 136 12.8264
70 136 12.9159
71 136 13.069
72 136 13.2255
73 136 13.3822
74 136 13.5208
75 136 13.6625
76 136 13.8064
77 136 13.9708
78 136 14.1546
79 136 14.3592
80 136 14.5111
81 136 14.6338
82 136 14.6812
83 136 14.6858
84 136 14.6094
85 136 14.4369
86 136 14.0795
87 136 13.5919
88 136 13.016
89 136 12.4492
90 136 11.7663
91 136 10.4681
92 136 7.88042
93 136 -0.170016
94 136 -466.364
95 136 -466.364
96 136 -466.364
97 136 -466.364
98 136 -466.364
99 136 -466.364
100 136 -466.364
101 136 -466.364
102 136 -466.364
103 136 -466.364
104 136 -466.364
105 136 -466.364
106 136 -466.364
107 136 -466.364
108 136 -466.364
109 136 -466.364
110 136 -466.364
111 136 -466.364
112 136 -466.364
113 136 -466.364
114 136 -466.364
115 136 -466.364
116 136 -466.364
117 136 -466.364
118 136 -466.364
119 136 -466.364
0 137 -466.364
1 137 -466.364
2 137 -466.364
3 137 -466.364
4 137 -466.364
5 137 -466.364
6 137 -466.364
7 137 -466.364
8 137 -466.364
9 137 -466.364
10 137 -466.364
11 137 -466.364
12 137 -466.364
13 137 -466.364
14 137 -466.364
15 137 -466.364
16 137 -466.364
17 137 -466.364
18 137 -2.63548
19 137 -1.13291
20 137 0.642254
21 137 1.58049
22 137 2.35138
23 137 2.98003
24 137 3.42172
25 137 3.76467
26 137 4.09473
27 137 4.37531
28 137 4.61999
29 137 4.79842
30 137 4.86751
31 137 5.2906
32 137 5.94141
33 137 6.80199
34 137 7.97783
35 137 9.42216
36 137 10.6004
37 137 11.6388
38 137 12.5091
39 137 13.2807
40 137 13.938
41 137 14.4527
42 137 14.8308
43 137 15.1736
44 137 15.4365
45 137 15.6346
46 137 15.7947
47 137 15.9149
48 137 15.9888
49 137 16.0293
50 137 16.012
51 137 15.9975
52 137 15.9731
53 137 15.8989
54 137 15.8334
55 137 15.7317
56 137 15.5223
57 137 15.2447
58 137 14.9607
59 137 14.6579
60 137 14.323
61 137 13.9878
62 137 13.6056
63 137 13.2503
64 137 13.0361
65 137 12.9561
66 137 12.9238
67 137 12.9023
68 137 12.9305
69 137 13.003
70 137 13.073
71 137 13.2067
72 137 13.3641
73 137 13.5088
74 137 13.6594
75 137 13.8094
76 137 13.9742
77 137 14.158
78 137 14.3714
79 137 14.5903
80 137 14.7759
81 137 14.9304
82 137 15.0026
83 137 15.0138
84 137 14.9893
85 137 14.9164
86 137 14.6692
87 137 14.2154
88 137 13.6981
89 137 13.0984
90 137 12.4518
91 137 11.6167
92 137 8.20333
93 137 -466.364
94 137 -466.364
95 137 -466.364
96 137 -466.364
97 137 -466.364
98 137 -466.364
99 137 -466.364
100 137 -466.364
101 137 -466.364
102 137 -466.364
103 137 -466.364
104 137 -466.364
105 137 -466.364
106 137 -466.364
107 137 -466.364
108 137 -466.364
109 137 -466.364
110 137 -466.364
111 137 -466.364
112 137 -466.364
113 137 -466.364
114 137 -466.364
115 137 -466.364
116 137 -466.364
117 137 -466.364
118 137 -466.364
119 137 -466.364
0 138 -466.364
1 138 -466.364
2 138 -466.364
3 138 -466.364
4 138 -466.364
5 138 -466.364
6 138 -466.364
7 138 -466.364
8 138 -466.364
9 138 -466.364
10 138 -466.364
11 138 -466.364
12 138 -466.364
13 138 -466.364
14 138 -466.364
15 138 -466.364
16 138 -4.89511
17 138 -2.43997
18 138 -1.39553
19 138 -0.0601917
20 138 1.26034
21 138 2.07742
22 138 2.70723
23 138 3.15699
24 138 3.52472
25 138 3.85173
26 138 4.16117
27 138 4.45476
28 138 4.71136
29 138 4.9198
30 138 5.14787
31 138 5.54822
32 138 6.16874
33 138 6.9721
34 138 8.11599
35 138 9.35637
36 138 10.413
37 138 11.3518
38 138 12.1562
39 138 12.8928
40 138 13.5673
41 138 14.0895
42 138 14.4865
43 138 14.8319
44 138 15.084
45 138 15.2743
46 138 15.4513
47 138 15.604
48 138 15.6991
49 138 15.7503
50 138 15.7553
51 138 15.7441
52 138 15.7179
53 138 15.671
54 138 15.6169
55 138 15.5385
56 138 15.417
57 138 15.1931
58 138 14.9438
59 138 14.6943
60 138 14.4048
61 138 14.1065
62 138 13.7566
63 138 13.4519
64 138 13.2695
65 138 13.1599
66 138 13.1074
67 138 13.0862
68 138 13.1111
69 138 13.157
70 138 13.2084
71 138 13.3238
72 138 13.4715
73 138 13.623
74 138 13.7693
75 138 13.9191
76 138 14.0927
77 138 14.2675
78 138 14.4685
79 138 14.6411
80 138 14.8164
81 138 15.004
82 138 15.1546
83 138 15.2198
84 138 15.2139
85 138 15.0853
86 138 14.864
87 138 14.474
88 138 13.9847
89 138 13.461
90 138 12.8089
91 138 11.5845
92 138 9.57312
93 138 5.30666
94 138 -0.603416
95 138 -466.364
96 138 -466.364
97 138 -466.364
98 138 -466.364
99 138 -466.364
100 138 -466.364
101 138 -466.364
102 138 -466.364
103 138 -466.364
104 138 -466.364
105 138 -466.364
106 138 -466.364
107 138 -466.364
108 138 -466.364
109 138 -466.364
110 138 -466.364
111 138 -466.364
112 138 -466.364
113 138 -466.364
114 138 -466.364
115 138 -466.364
116 138 -466.364
117 138 -466.364
118 138 -466.364
119 138 -466.364
0 139 -466.364
1 139 -466.364
2 139 -466.364
3 139 -466.364
4 139 -466.364
5 139 -466.364
6 139 -466.364
7 139 -466.364
8 139 -466.364
9 139 -466.364
10 139 -466.364
11 139 -466.364
12 139 -466.364
13 139 -466.364
14 139 -466.364
15 139 -5.64291
16 139 -3.25814
17 139 -1.54837
18 139 -0.43641
19 139 0.725093
20 139 1.78636
21 139 2.45142
22 139 2.93451
23 139 3.29301
24 139 3.62706
25 139 3.95273
26 139 4.2405
27 139 4.51638
28 139 4.76332
29 139 4.99911
30 139 5.3992
31 139 5.87057
32 139 6.45109
33 139 7.19393
34 139 8.26607
35 139 9.36351
36 139 10.2982
37 139 11.1417
38 139 11.9028
39 139 12.5908
40 139 13.2451
41 139 13.7589
42 139 14.1827
43 139 14.5045
44 139 14.7366
45 139 14.9401
46 139 15.1187
47 139 15.306
48 139 15.417
49 139 15.4932
50 139 15.5068
51 139 15.5065
52 139 15.4845
53 139 15.4552
54 139 15.414
55 139 15.3612
56 139 15.2789
57 139 15.1244
58 139 14.9295
59 139 14.7344
60 139 14.4999
61 139 14.2346
62 139 13.9247
63 139 13.6278
64 139 13.4802
65 139 13.3627
66 139 13.2861
67 139 13.2589
68 139 13.2707
69 139 13.2948
70 139 13.3423
71 139 13.4326
72 139 13.5425
73 139 13.674
74 139 13.8383
75 139 13.9867
76 139 14.1482
77 139 14.3056
78 139 14.4502
79 139 14.5914
80 139 14.7117
81 139 14.8191
82 139 14.9265
83 139 15.0125
84 139 15.0455
85 139 14.9822
86 139 14.7794
87 139 14.4439
88 139 13.9898
89 139 13.4805
90 139 12.7759
91 139 11.554
92 139 9.60489
93 139 6.78473
94 139 1.98777
95 139 -0.938481
96 139 -5.67859
97 139 -466.364
98 139 -466.364
99 139 -466.364
100 139 -466.364
101 139 -466.364
102 139 -466.364
103 139 -466.364
104 139 -466.364
105 139 -466.364
106 139 -466.364
107 139 -466.364
108 139 -466.364
109 139 -466.364
110 139 -466.364
111 139 -466.364
112 139 -466.364
113 139 -466.364
114 139 -466.364
115 139 -466.364
116 139 -466.364
117 139 -466.364
118 139 -466.364
119 139 -466.364
0 140 -466.364
1 140 -466.364
2 140 -466.364
3 140 -466.364
4 140 -466.364
5 140 -466.364
6 140 -466.364
7 140 -466.364
8 140 -466.364
9 140 -466.364
10 140 -466.364
11 140 -466.364
12 140 -466.364
13 140 -466.364
14 140 -6.85669
15 140 -3.99259
16 140 -2.41259
17 140 -0.979174
18 140 0.191369
19 140 1.25892
20 140 2.14721
21 140 2.68198
22 140 3.06372
23 140 3.40884
24 140 3.7289
25 140 4.03003
26 140 4.30148
27 140 4.54999
28 140 4.77623
29 140 5.07227
30 140 5.61461
31 140 6.18586
32 140 6.8168
33 140 7.51834
34 140 8.46368
35 140 9.39584
36 140 10.2314
37 140 10.9944
38 140 11.6888
39 140 12.3395
40 140 12.9557
41 140 13.4686
42 140 13.8801
43 140 14.1795
44 140 14.4205
45 140 14.6315
46 140 14.8169
47 140 14.9967
48 140 15.1569
49 140 15.2342
50 140 15.2611
51 140 15.2732
52 140 15.279
53 140 15.2621
54 140 15.2493
55 140 15.2051
56 140 15.1434
57 140 15.0667
58 140 14.944
59 140 14.7801
60 140 14.5881
61 140 14.3561
62 140 14.0999
63 140 13.8333
64 140 13.687
65 140 13.5637
66 140 13.477
67 140 13.4408
68 140 13.4185
69 140 13.4349
70 140 13.4727
71 140 13.539
72 140 13.6197
73 140 13.7194
74 140 13.8493
75 140 13.9963
76 140 14.1326
77 140 14.2543
78 140 14.3533
79 140 14.4471
80 140 14.5052
81 140 14.5719
82 140 14.6084
83 140 14.6111
84 140 14.5931
85 140 14.5339
86 140 14.3766
87 140 14.0783
88 140 13.6861
89 140 13.213
90 140 12.5592
91 140 11.4679
92 140 9.57251
93 140 7.0133
94 140 2.74808
95 140 0.104733
96 140 -1.39385
97 140 -4.28026
98 140 -466.364
99 140 -466.364
100 140 -466.364
101 140 -466.364
102 140 -466.364
103 140 -466.364
104 140 -466.364
105 140 -466.364
106 140 -466.364
107 140 -466.364
108 140 -466.364
109 140 -466.364
110 140 -466.364
111 140 -466.364
112 140 -466.364
113 140 -466.364
114 140 -466.364
115 140 -466.364
116 140 -466.364
117 140 -466.364
118 140 -466.364
119 140 -466.364
0 141 -466.364
1 141 -466.364
2 141 -466.364
3 141 -466.364
4 141 -466.364
5 141 -466.364
6 141 -466.364
7 141 -466.364
8 141 -466.364
9 141 -466.364
10 141 -466.364
11 141 -466.364
12 141 -466.364
13 141 -7.93937
14 141 -5.18766
15 141 -3.25781
16 141 -1.79352
17 141 -0.497531
18 141 0.644085
19 141 1.61998
20 141 2.40256
21 141 2.81958
22 141 3.18375
23 141 3.5088
24 141 3.81754
25 141 4.07047
26 141 4.31294
27 141 4.56064
28 141 4.79095
29 141 5.17303
30 141 5.82579
31 141 6.48367
32 141 7.16237
33 141 7.89555
34 141 8.72378
35 141 9.4813
36 141 10.218
37 141 10.9096
38 141 11.5556
39 141 12.156
40 141 12.7302
41 141 13.2088
42 141 13.5819
43 141 13.8755
44 141 14.1411
45 141 14.3615
46 141 14.559
47 141 14.7354
48 141 14.8982
49 141 15.0034
50 141 15.0387
51 141 15.0792
52 141 15.1124
53 141 15.1123
54 141 15.1163
55 141 15.0959
56 141 15.0537
57 141 15.0013
58 141 14.9395
59 141 14.8268
60 141 14.6801
61 141 14.4919
62 141 14.2823
63 141 14.0569
64 141 13.8691
65 141 13.7614
66 141 13.6807
67 141 13.6204
68 141 13.5725
69 141 13.5874
70 141 13.6015
71 141 13.6322
72 141 13.6741
73 141 13.7347
74 141 13.849
75 141 13.9479
76 141 14.0617
77 141 14.1507
78 141 14.2063
79 141 14.2381
80 141 14.2351
81 141 14.248
82 141 14.2569
83 141 14.2368
84 141 14.2011
85 141 14.1264
86 141 13.9892
87 141 13.693
88 141 13.2941
89 141 12.8491
90 141 12.2279
91 141 11.1261
92 141 9.15463
93 141 6.00034
94 141 3.27328
95 141 1.17366
96 141 -0.599703
97 141 -1.93936
98 141 -3.70109
99 141 -466.364
100 141 -466.364
101 141 -466.364
102 141 -466.364
103 141 -466.364
104 141 -466.364
105 141 -466.364
106 141 -466.364
107 141 -466.364
108 141 -466.364
109 141 -466.364
110 141 -466.364
111 141 -466.364
112 141 -466.364
113 141 -466.364
114 141 -466.364
115 141 -466.364
116 141 -466.364
117 141 -466.364
118 141 -466.364
119 141 -466.364
0 142 -466.364
1 142 -466.364
2 142 -466.364
3 142 -466.364
4 142 -466.364
5 142 -466.364
6 142 -466.364
7 142 -466.364
8 142 -466.364
9 142 -466.364
10 142 -466.364
11 142 -14.8473
12 142 -8.94923
13 142 -6.22686
14 142 -4.32558
15 142 -2.69118
16 142 -1.29761
17 142 -0.0830073
18 142 0.981437
19 142 1.88044
20 142 2.51647
21 142 2.93559
22 142 3.26637
23 142 3.57959
24 142 3.84729
25 142 4.08385
26 142 4.32946
27 142 4.55102
28 142 4.80296
29 142 5.29201
30 142 6.03305
31 142 6.76483
32 142 7.51395
33 142 8.24792
34 142 8.96526
35 142 9.63604
36 142 10.2855
37 142 10.8826
38 142 11.4623
39 142 12.0037
40 142 12.5263
41 142 12.9748
42 142 13.3221
43 142 13.6185
44 142 13.8806
45 142 14.1269
46 142 14.3261
47 142 14.5102
48 142 14.657
49 142 14.7922
50 142 14.8513
51 142 14.9119
52 142 14.9486
53 142 14.9722
54 142 14.9854
55 142 14.9847
56 142 14.9643
57 142 14.9215
58 142 14.893
59 142 14.8503
60 142 14.7525
61 142 14.6022
62 142 14.4376
63 142 14.2577
64 142 14.0969
65 142 13.9547
66 142 13.8662
67 142 13.7944
68 142 13.7315
69 142 13.7249
70 142 13.7125
71 142 13.7123
72 142 13.7356
73 142 13.7708
74 142 13.8249
75 142 13.8943
76 142 13.9533
77 142 14.0019
78 142 14.0316
79 142 14.0118
80 142 13.9785
81 142 13.9491
82 142 13.925
83 142 13.8785
84 142 13.8354
85 142 13.7641
86 142 13.6052
87 142 13.3174
88 142 12.9174
89 142 12.443
90 142 11.7647
91 142 10.6556
92 142 8.38235
93 142 4.88727
94 142 3.2336
95 142 1.62624
96 142 0.286415
97 142 -0.924601
98 142 -2.05032
99 142 -2.72824
100 142 -6.67433
101 142 -466.364
102 142 -466.364
103 142 -466.364
104 142 -466.364
105 142 -466.364
106 142 -466.364
107 142 -466.364
108 142 -466.364
109 142 -466.364
110 142 -466.364
111 142 -466.364
112 142 -466.364
113 142 -466.364
114 142 -466.364
115 142 -466.364
116 142 -466.364
117 142 -466.364
118 142 -466.364
119 142 -466.364
0 143 -466.364
1 143 -466.364
2 143 -466.364
3 143 -466.364
4 143 -466.364
5 143 -466.364
6 143 -466.364
7 143 -466.364
8 143 -466.364
9 143 -466.364
10 143 -16.7741
11 143 -12.084
12 143 -8.0255
13 143 -5.64814
14 143 -3.76909
15 143 -2.19858
16 143 -0.875283
17 143 0.270413
18 143 1.25555
19 143 1.99723
20 143 2.57872
21 143 3.00372
22 143 3.32752
23 143 3.59731
24 143 3.85063
25 143 4.09589
26 143 4.32565
27 143 4.53884
28 143 4.83525
29 143 5.46745
30 143 6.28332
31 143 7.06557
32 143 7.81609
33 143 8.49517
34 143 9.15866
35 143 9.78206
36 143 10.3592
37 143 10.9238
38 143 11.4125
39 143 11.8898
40 143 12.365
41 143 12.757
42 143 13.0991
43 143 13.4056
44 143 13.6774
45 143 13.9281
46 143 14.125
47 143 14.3094
48 143 14.4657
49 143 14.5896
50 143 14.6721
51 143 14.7508
52 143 14.8126
53 143 14.8396
54 143 14.847
55 143 14.8514
56 143 14.8483
57 143 14.845
58 143 14.8375
59 143 14.8403
60 143 14.7831
61 143 14.68
62 143 14.5425
63 143 14.3895
64 143 14.2703
65 143 14.1422
66 143 14.0568
67 143 13.9812
68 143 13.913
69 143 13.8591
70 143 13.8269
71 143 13.8036
72 143 13.7916
73 143 13.8063
74 143 13.8057
75 143 13.8258
76 143 13.8724
77 143 13.8783
78 143 13.8548
79 143 13.8092
80 143 13.7057
81 143 13.666
82 143 13.5938
83 143 13.5595
84 143 13.5034
85 143 13.4437
86 143 13.2537
87 143 12.9614
88 143 12.5469
89 143 12.0367
90 143 11.222
91 143 9.9574
92 143 7.57651
93 143 4.47237
94 143 3.29205
95 143 1.99894
96 143 0.820253
97 143 -0.257705
98 143 -1.18137
99 143 -1.97232
100 143 -2.53954
101 143 -3.83252
102 143 -466.364
103 143 -466.364
104 143 -466.364
105 143 -466.364
106 143 -466.364
107 143 -466.364
108 143 -466.364
109 143 -466.364
110 143 -466.364
111 143 -466.364
112 143 -466.364
113 143 -466.364
114 143 -466.364
115 143 -466.364
116 143 -466.364
117 143 -466.364
118 143 -466.364
119 143 -466.364
0 144 -466.364
1 144 -466.364
2 144 -466.364
3 144 -466.364
4 144 -466.364
5 144 -466.364
6 144 -466.364
7 144 -466.364
8 144 -466.364
9 144 -20.9587
10 144 -14.2061
11 144 -10.5136
12 144 -7.45314
13 144 -5.12259
14 144 -3.26938
15 144 -1.72494
16 144 -0.487201
17 144 0.559415
18 144 1.42955
19 144 2.10265
20 144 2.64829
21 144 3.0473
22 144 3.36808
23 144 3.61772
24 144 3.85022
25 144 4.09783
26 144 4.31456
27 144 4.53242
28 144 4.94066
29 144 5.6983
30 144 6.5673
31 144 7.33984
32 144 8.04386
33 144 8.6805
34 144 9.29453
35 144 9.86242
36 144 10.4179
37 144 10.93
38 144 11.3955
39 144 11.83
40 144 12.2331
41 144 12.608
42 144 12.9346
43 144 13.2188
44 144 13.507
45 144 13.767
46 144 13.9737
47 144 14.1508
48 144 14.3105
49 144 14.4256
50 144 14.5306
51 144 14.6143
52 144 14.6615
53 144 14.6972
54 144 14.7191
55 144 14.7319
56 144 14.7592
57 144 14.7616
58 144 14.7741
59 144 14.7853
60 144 14.7923
61 144 14.7388
62 144 14.6225
63 144 14.5017
64 144 14.3807
65 144 14.2856
66 144 14.2044
67 144 14.1341
68 144 14.0704
69 144 14.016
70 144 13.959
71 144 13.9053
72 144 13.8617
73 144 13.824
74 144 13.7827
75 144 13.7608
76 144 13.7481
77 144 13.7374
78 144 13.6862
79 144 13.6
80 144 13.4628
81 144 13.3687
82 144 13.2987
83 144 13.2455
84 144 13.196
85 144 13.1276
86 144 12.9159
87 144 12.6094
88 144 12.176
89 144 11.6343
90 144 10.6379
91 144 9.18554
92 144 6.85145
93 144 4.19784
94 144 3.28165
95 144 2.23936
96 144 1.21818
97 144 0.256752
98 144 -0.598884
99 144 -1.32
100 144 -1.85932
101 144 -2.59398
102 144 -3.26439
103 144 -7.09997
104 144 -466.364
105 144 -466.364
106 144 -466.364
107 144 -466.364
108 144 -466.364
109 144 -466.364
110 144 -466.364
111 144 -466.364
112 144 -466.364
113 144 -466.364
114 144 -466.364
115 144 -466.364
116 144 -466.364
117 144 -466.364
118 144 -466.364
119 144 -466.364
0 145 -466.364
1 145 -466.364
2 145 -466.364
3 145 -466.364
4 145 -466.364
5 145 -466.364
6 145 -466.364
7 145 -466.364
8 145 -466.364
9 145 -18.8297
10 145 -12.8649
11 145 -9.39822
12 145 -6.67495
13 145 -4.44186
14 145 -2.72454
15 145 -1.29266
16 145 -0.154038
17 145 0.799874
18 145 1.56567
19 145 2.20387
20 145 2.69002
21 145 3.06506
22 145 3.36399
23 145 3.60772
24 145 3.84614
25 145 4.10912
26 145 4.34147
27 145 4.60967
28 145 5.11907
29 145 5.92704
30 145 6.77529
31 145 7.49587
32 145 8.1535
33 145 8.77676
34 145 9.35587
35 145 9.89973
36 145 10.4192
37 145 10.8909
38 145 11.3218
39 145 11.7261
40 145 12.1156
41 145 12.4565
42 145 12.7866
43 145 13.0783
44 145 13.3448
45 145 13.6041
46 145 13.8265
47 145 14.0094
48 145 14.1754
49 145 14.2858
50 145 14.401
51 145 14.4837
52 145 14.548
53 145 14.5834
54 145 14.6153
55 145 14.6376
56 145 14.6707
57 145 14.6938
58 145 14.7124
59 145 14.7397
60 145 14.7683
61 145 14.7241
62 145 14.653
63 145 14.5671
64 145 14.4677
65 145 14.3939
66 145 14.3263
67 145 14.2722
68 145 14.2068
69 145 14.1404
70 145 14.07
71 145 13.9991
72 145 13.9245
73 145 13.8432
74 145 13.7777
75 145 13.7012
76 145 13.6497
77 145 13.6097
78 145 13.5204
79 145 13.4034
80 145 13.2401
81 145 13.1027
82 145 13.0029
83 145 12.9359
84 145 12.9066
85 145 12.7747
86 145 12.5499
87 145 12.2392
88 145 11.8006
89 145 11.1971
90 145 10.1078
91 145 8.53746
92 145 6.62541
93 145 3.94741
94 145 3.3219
95 145 2.43713
96 145 1.54719
97 145 0.682873
98 145 -0.106252
99 145 -0.834732
100 145 -1.49493
101 145 -2.07838
102 145 -2.81489
103 145 -3.17778
104 145 -5.35536
105 145 -466.364
106 145 -466.364
107 145 -466.364
108 145 -466.364
109 145 -466.364
110 145 -466.364
111 145 -466.364
112 145 -466.364
113 145 -466.364
114 145 -466.364
115 145 -466.364
116 145 -466.364
117 145 -466.364
118 145 -466.364
119 145 -466.364
0 146 -466.364
1 146 -466.364
2 146 -466.364
3 146 -466.364
4 146 -466.364
5 146 -466.364
6 146 -466.364
7 146 -466.364
8 146 -466.364
9 146 -17.938
10 146 -11.9052
11 146 -8.42178
12 146 -5.90297
13 146 -3.81123
14 146 -2.16455
15 146 -0.828124
16 146 0.213873
17 146 1.07916
18 146 1.72318
19 146 2.2878
20 146 2.73531
21 146 3.07907
22 146 3.34154
23 146 3.58845
24 146 3.85474
25 146 4.11855
26 146 4.37715
27 146 4.69193
28 146 5.26629
29 146 6.07941
30 146 6.86203
31 146 7.57246
32 146 8.21307
33 146 8.8065
34 146 9.37005
35 146 9.88618
36 146 10.3665
37 146 10.8235
38 146 11.2351
39 146 11.5988
40 146 11.99
41 146 12.3327
42 146 12.6341
43 146 12.9375
44 146 13.2025
45 146 13.4523
46 146 13.6878
47 146 13.8751
48 146 14.0354
49 146 14.1593
50 146 14.2723
51 146 14.3536
52 146 14.4139
53 146 14.481
54 146 14.5376
55 146 14.5553
56 146 14.5956
57 146 14.6232
58 146 14.647
59 146 14.6861
60 146 14.7259
61 146 14.7298
62 146 14.6652
63 146 14.6008
64 146 14.5329
65 146 14.4699
66 146 14.4039
67 146 14.3435
68 146 14.2853
69 146 14.2222
70 146 14.1337
71 146 14.0449
72 146 13.9722
73 146 13.8573
74 146 13.7434
75 146 13.64
76 146 13.5488
77 146 13.4632
78 146 13.3472
79 146 13.2176
80 146 13.0284
81 146 12.8665
82 146 12.7377
83 146 12.6393
84 146 12.5708
85 146 12.4298
86 146 12.219
87 146 11.8947
88 146 11.4176
89 146 10.793
90 146 9.79975
91 146 8.24812
92 146 5.81062
93 146 4.04341
94 146 3.40536
95 146 2.62584
96 146 1.84714
97 146 1.06169
98 146 0.318606
99 146 -0.404068
100 146 -1.08915
101 146 -1.71801
102 146 -2.27063
103 146 -2.74491
104 146 -3.30897
105 146 -5.50426
106 146 -466.364
107 146 -466.364
108 146 -466.364
109 146 -466.364
110 146 -466.364
111 146 -466.364
112 146 -466.364
113 146 -466.364
114 146 -466.364
115 146 -466.364
116 146 -466.364
117 146 -466.364
118 146 -466.364
119 146 -466.364
0 147 -466.364
1 147 -466.364
2 147 -466.364
3 147 -466.364
4 147 -466.364
5 147 -466.364
6 147 -466.364
7 147 -466.364
8 147 -466.364
9 147 -17.2344
10 147 -11.2736
11 147 -7.68883
12 147 -5.20871
13 147 -3.1983
14 147 -1.6543
15 147 -0.403214
16 147 0.622848
17 147 1.40521
18 147 1.91599
19 147 2.39553
20 147 2.77661
21 147 3.06137
22 147 3.33962
23 147 3.59752
24 147 3.85557
25 147 4.12511
26 147 4.40833
27 147 4.78571
28 147 5.39166
29 147 6.19506
30 147 6.93481
31 147 7.6145
32 147 8.22622
33 147 8.79508
34 147 9.33344
35 147 9.8326
36 147 10.2997
37 147 10.7318
38 147 11.122
39 147 11.5011
40 147 11.8698
41 147 12.2017
42 147 12.4999
43 147 12.8137
44 147 13.0743
45 147 13.3092
46 147 13.5485
47 147 13.745
48 147 13.9063
49 147 14.0468
50 147 14.1512
51 147 14.2319
52 147 14.301
53 147 14.375
54 147 14.4459
55 147 14.4981
56 147 14.5354
57 147 14.5785
58 147 14.6105
59 147 14.6468
60 147 14.6677
61 147 14.6959
62 147 14.6632
63 147 14.6275
64 147 14.5711
65 147 14.5071
66 147 14.4541
67 147 14.4037
68 147 14.3452
69 147 14.2544
70 147 14.1782
71 147 14.0723
72 147 13.9841
73 147 13.8741
74 147 13.7435
75 147 13.5932
76 147 13.4479
77 147 13.3286
78 147 13.2016
79 147 13.0221
80 147 12.8251
81 147 12.6323
82 147 12.4998
83 147 12.3776
84 147 12.2476
85 147 12.0455
86 147 11.8181
87 147 11.495
88 147 11.0654
89 147 10.5336
90 147 9.61916
91 147 8.26943
92 147 4.90197
93 147 4.05146
94 147 3.48203
95 147 2.83083
96 147 2.13448
97 147 1.41898
98 147 0.697255
99 147 -0.0205938
100 147 -0.696739
101 147 -1.34692
102 147 -1.95583
103 147 -2.47695
104 147 -2.96408
105 147 -3.62507
106 147 -6.2343
107 147 -466.364
108 147 -466.364
109 147 -466.364
110 147 -466.364
111 147 -466.364
112 147 -466.364
113 147 -466.364
114 147 -466.364
115 147 -466.364
116 147 -466.364
117 147 -466.364
118 147 -466.364
119 147 -466.364
0 148 -466.364
1 148 -466.364
2 148 -466.364
3 148 -466.364
4 148 -466.364
5 148 -466.364
6 148 -466.364
7 148 -466.364
8 148 -466.364
9 148 -16.4533
10 148 -10.993
11 148 -7.18994
12 148 -4.694
13 148 -2.71488
14 148 -1.19378
15 148 0.0185534
16 148 1.01425
17 148 1.69913
18 148 2.14097
19 148 2.51761
20 148 2.8251
21 148 3.06472
22 148 3.33605
23 148 3.59631
24 148 3.87532
25 148 4.12786
26 148 4.44873
27 148 4.88707
28 148 5.50601
29 148 6.25954
30 148 6.96201
31 148 7.60439
32 148 8.19464
33 148 8.76666
34 148 9.29596
35 148 9.7821
36 148 10.2387
37 148 10.6523
38 148 11.0245
39 148 11.4127
40 148 11.7389
41 148 12.0767
42 148 12.3849
43 148 12.6895
44 148 12.9565
45 148 13.1987
46 148 13.4146
47 148 13.617
48 148 13.7804
49 148 13.9207
50 148 14.0288
51 148 14.1237
52 148 14.2117
53 148 14.2847
54 148 14.3511
55 148 14.4171
56 148 14.4833
57 148 14.5338
58 148 14.5697
59 148 14.6082
60 148 14.6222
61 148 14.6305
62 148 14.6216
63 148 14.6005
64 148 14.5803
65 148 14.5229
66 148 14.4646
67 148 14.4009
68 148 14.3323
69 148 14.2645
70 148 14.1684
71 148 14.0738
72 148 13.9677
73 148 13.8499
74 148 13.7027
75 148 13.5552
76 148 13.3885
77 148 13.2204
78 148 13.0589
79 148 12.8761
80 148 12.6303
81 148 12.4304
82 148 12.2749
83 148 12.1133
84 148 11.9301
85 148 11.674
86 148 11.3892
87 148 11.0602
88 148 10.6842
89 148 10.2687
90 148 9.50264
91 148 8.16511
92 148 4.18691
93 148 3.83565
94 148 3.51383
95 148 3.02502
96 148 2.44097
97 148 1.77433
98 148 1.0732
99 148 0.378067
100 148 -0.319578
101 148 -0.994469
102 148 -1.64099
103 148 -2.21129
104 148 -2.74158
105 148 -3.22105
106 148 -4.0194
107 148 -6.65073
108 148 -466.364
109 148 -466.364
110 148 -466.364
111 148 -466.364
112 148 -466.364
113 148 -466.364
114 148 -466.364
115 148 -466.364
116 148 -466.364
117 148 -466.364
118 148 -466.364
119 148 -466.364
0 149 -466.364
1 149 -466.364
2 149 -466.364
3 149 -466.364
4 149 -466.364
5 149 -466.364
6 149 -466.364
7 149 -466.364
8 149 -466.364
9 149 -15.9371
10 149 -10.7321
11 149 -6.90248
12 149 -4.28405
13 149 -2.28325
14 149 -0.819806
15 149 0.385064
16 149 1.34763
17 149 1.9568
18 149 2.33941
19 149 2.60786
20 149 2.865
21 149 3.10088
22 149 3.34928
23 149 3.61763
24 149 3.87387
25 149 4.12476
26 149 4.48253
27 149 4.96192
28 149 5.61021
29 149 6.31977
30 149 6.97558
31 149 7.57823
32 149 8.15821
33 149 8.71502
34 149 9.22861
35 149 9.70257
36 149 10.1394
37 149 10.5421
38 149 10.9165
39 149 11.2966
40 149 11.6229
41 149 11.9532
42 149 12.2589
43 149 12.5647
44 149 12.8372
45 149 13.0919
46 149 13.3008
47 149 13.4967
48 149 13.6648
49 149 13.8059
50 149 13.9213
51 149 14.0293
52 149 14.1294
53 149 14.2035
54 149 14.2788
55 149 14.3438
56 149 14.4137
57 149 14.4826
58 149 14.5224
59 149 14.5401
60 149 14.5559
61 149 14.5566
62 149 14.5827
63 149 14.5683
64 149 14.5284
65 149 14.4785
66 149 14.4313
67 149 14.386
68 149 14.291
69 149 14.2174
70 149 14.1189
71 149 14.025
72 149 13.9174
73 149 13.781
74 149 13.6388
75 149 13.4907
76 149 13.3069
77 149 13.1206
78 149 12.9017
79 149 12.6987
80 149 12.4657
81 149 12.2459
82 149 12.0635
83 149 11.8335
84 149 11.5902
85 149 11.3132
86 149 11.0224
87 149 10.7295
88 149 10.4147
89 149 10.148
90 149 9.53427
91 149 8.50546
92 149 3.5982
93 149 3.72868
94 149 3.59426
95 149 3.25793
96 149 2.73257
97 149 2.13634
98 149 1.48962
99 149 0.780398
100 149 0.0694404
101 149 -0.647984
102 149 -1.3105
103 149 -1.92243
104 149 -2.49142
105 149 -3.00132
106 149 -3.5629
107 149 -4.42206
108 149 -6.71099
109 149 -466.364
110 149 -466.364
111 149 -466.364
112 149 -466.364
113 149 -466.364
114 149 -466.364
115 149 -466.364
116 149 -466.364
117 149 -466.364
118 149 -466.364
119 149 -466.364
0 150 -466.364
1 150 -466.364
2 150 -466.364
3 150 -466.364
4 150 -466.364
5 150 -466.364
6 150 -466.364
7 150 -466.364
8 150 -466.364
9 150 -15.3526
10 150 -10.5543
11 150 -6.85365
12 150 -4.08367
13 150 -2.02524
14 150 -0.517535
15 150 0.668824
16 150 1.58843
17 150 2.16656
18 150 2.47881
19 150 2.68038
20 150 2.9013
21 150 3.15306
22 150 3.3841
23 150 3.62816
24 150 3.86378
25 150 4.12471
26 150 4.52336
27 150 5.03926
28 150 5.67675
29 150 6.36713
30 150 6.98769
31 150 7.59306
32 150 8.16358
33 150 8.67537
34 150 9.15706
35 150 9.61914
36 150 10.035
37 150 10.4458
38 150 10.8068
39 150 11.1873
40 150 11.5124
41 150 11.8287
42 150 12.1325
43 150 12.4351
44 150 12.7112
45 150 12.9686
46 150 13.1792
47 150 13.3838
48 150 13.5605
49 150 13.7023
50 150 13.8282
51 150 13.9466
52 150 14.0495
53 150 14.133
54 150 14.2168
55 150 14.2866
56 150 14.3514
57 150 14.4149
58 150 14.464
59 150 14.4848
60 150 14.5129
61 150 14.5255
62 150 14.5249
63 150 14.4976
64 150 14.45
65 150 14.4373
66 150 14.3649
67 150 14.2907
68 150 14.2139
69 150 14.1465
70 150 14.0586
71 150 13.9302
72 150 13.8171
73 150 13.6939
74 150 13.5396
75 150 13.3842
76 150 13.1853
77 150 12.993
78 150 12.777
79 150 12.5461
80 150 12.3087
81 150 12.0664
82 150 11.8476
83 150 11.5947
84 150 11.3251
85 150 11.0445
86 150 10.7652
87 150 10.4689
88 150 10.1896
89 150 9.94613
90 150 9.45041
91 150 9.12908
92 150 3.80976
93 150 3.97844
94 150 3.83893
95 150 3.51965
96 150 3.08082
97 150 2.50262
98 150 1.89668
99 150 1.21323
100 150 0.466471
101 150 -0.255131
102 150 -0.974376
103 150 -1.61646
104 150 -2.23852
105 150 -2.78959
106 150 -3.3788
107 150 -4.04257
108 150 -5.09166
109 150 -466.364
110 150 -466.364
111 150 -466.364
112 150 -466.364
113 150 -466.364
114 150 -466.364
115 150 -466.364
116 150 -466.364
117 150 -466.364
118 150 -466.364
119 150 -466.364
0 151 -466.364
1 151 -466.364
2 151 -466.364
3 151 -466.364
4 151 -466.364
5 151 -466.364
6 151 -466.364
7 151 -466.364
8 151 -466.364
9 151 -15.5443
10 151 -10.4727
11 151 -6.98928
12 151 -4.06396
13 151 -1.93177
14 151 -0.394273
15 151 0.886539
16 151 1.74093
17 151 2.29199
18 151 2.56733
19 151 2.77848
20 151 2.96643
21 151 3.18288
22 151 3.41357
23 151 3.64253
24 151 3.85299
25 151 4.13863
26 151 4.557
27 151 5.09522
28 151 5.75246
29 151 6.40307
30 151 6.98351
31 151 7.56368
32 151 8.09915
33 151 8.59819
34 151 9.08557
35 151 9.52147
36 151 9.94489
37 151 10.3366
38 151 10.7062
39 151 11.0795
40 151 11.4145
41 151 11.7346
42 151 12.029
43 151 12.32
44 151 12.5904
45 151 12.8395
46 151 13.0777
47 151 13.2761
48 151 13.4629
49 151 13.6088
50 151 13.7427
51 151 13.8713
52 151 13.9737
53 151 14.0738
54 151 14.1641
55 151 14.2407
56 151 14.3125
57 151 14.3584
58 151 14.4055
59 151 14.4453
60 151 14.4655
61 151 14.4695
62 151 14.438
63 151 14.4212
64 151 14.3891
65 151 14.3324
66 151 14.2518
67 151 14.191
68 151 14.1272
69 151 14.0422
70 151 13.9338
71 151 13.8145
72 151 13.6869
73 151 13.5581
74 151 13.3935
75 151 13.2102
76 151 13.0297
77 151 12.8327
78 151 12.6233
79 151 12.3832
80 151 12.1771
81 151 11.9572
82 151 11.7254
83 151 11.4696
84 151 11.1995
85 151 10.9317
86 151 10.6399
87 151 10.3233
88 151 10.0032
89 151 9.70312
90 151 9.0648
91 151 8.21317
92 151 4.96148
93 151 4.55317
94 151 4.25108
95 151 3.89113
96 151 3.45162
97 151 2.91387
98 151 2.2952
99 151 1.63203
100 151 0.899943
101 151 0.137815
102 151 -0.593334
103 151 -1.29412
104 151 -1.96436
105 151 -2.59514
106 151 -3.29603
107 151 -4.18115
108 151 -5.35646
109 151 -466.364
110 151 -466.364
111 151 -466.364
112 151 -466.364
113 151 -466.364
114 151 -466.364
115 151 -466.364
116 151 -466.364
117 151 -466.364
118 151 -466.364
119 151 -466.364
0 152 -466.364
1 152 -466.364
2 152 -466.364
3 152 -466.364
4 152 -466.364
5 152 -466.364
6 152 -466.364
7 152 -466.364
8 152 -466.364
9 152 -16.0841
10 152 -10.5835
11 152 -7.31925
12 152 -4.18824
13 152 -1.96135
14 152 -0.324645
15 152 0.974825
16 152 1.79129
17 152 2.28748
18 152 2.59697
19 152 2.8476
20 152 3.04508
21 152 3.22133
22 152 3.42338
23 152 3.62421
24 152 3.82656
25 152 4.15233
26 152 4.57632
27 152 5.11608
28 152 5.76111
29 152 6.3934
30 152 6.94466
31 152 7.50125
32 152 8.01826
33 152 8.51828
34 152 8.96546
35 152 9.41043
36 152 9.83134
37 152 10.2357
38 152 10.6055
39 152 10.9684
40 152 11.2889
41 152 11.63
42 152 11.9282
43 152 12.2154
44 152 12.4819
45 152 12.7284
46 152 12.9643
47 152 13.1748
48 152 13.3672
49 152 13.5209
50 152 13.6663
51 152 13.7987
52 152 13.9118
53 152 14.0197
54 152 14.1186
55 152 14.199
56 152 14.2507
57 152 14.3009
58 152 14.3324
59 152 14.3573
60 152 14.3837
61 152 14.3804
62 152 14.3806
63 152 14.3587
64 152 14.2956
65 152 14.2358
66 152 14.1747
67 152 14.1078
68 152 14.0117
69 152 13.9147
70 152 13.7974
71 152 13.6522
72 152 13.5436
73 152 13.3854
74 152 13.2204
75 152 13.0472
76 152 12.8508
77 152 12.68
78 152 12.4569
79 152 12.2521
80 152 12.0406
81 152 11.8038
82 152 11.5923
83 152 11.3227
84 152 11.062
85 152 10.7799
86 152 10.5039
87 152 10.1797
88 152 9.82327
89 152 9.42561
90 152 8.72669
91 152 7.78047
92 152 6.31353
93 152 4.89742
94 152 4.65039
95 152 4.26209
96 152 3.80702
97 152 3.279
98 152 2.69279
99 152 2.03188
100 152 1.30462
101 152 0.552455
102 152 -0.206653
103 152 -0.930657
104 152 -1.63257
105 152 -2.34814
106 152 -3.15935
107 152 -4.28421
108 152 -5.78593
109 152 -466.364
110 152 -466.364
111 152 -466.364
112 152 -466.364
113 152 -466.364
114 152 -466.364
115 152 -466.364
116 152 -466.364
117 152 -466.364
118 152 -466.364
119 152 -466.364
0 153 -466.364
1 153 -466.364
2 153 -466.364
3 153 -466.364
4 153 -466.364
5 153 -466.364
6 153 -466.364
7 153 -466.364
8 153 -466.364
9 153 -16.3585
10 153 -11.2413
11 153 -7.86874
12 153 -4.56165
13 153 -2.18116
14 153 -0.381462
15 153 0.935295
16 153 1.71872
17 153 2.24076
18 153 2.59132
19 153 2.84944
20 153 3.07506
21 153 3.28564
22 153 3.4472
23 153 3.59894
24 153 3.80842
25 153 4.11977
26 153 4.5413
27 153 5.06764
28 153 5.71375
29 153 6.31291
30 153 6.88637
31 153 7.41209
32 153 7.91168
33 153 8.39525
34 153 8.85436
35 153 9.29279
36 153 9.69216
37 153 10.0978
38 153 10.4783
39 153 10.8554
40 153 11.194
41 153 11.5202
42 153 11.8299
43 153 12.1178
44 153 12.3664
45 153 12.6304
46 153 12.8608
47 153 13.0827
48 153 13.2807
49 153 13.445
50 153 13.5949
51 153 13.7252
52 153 13.8396
53 153 13.9468
54 153 14.046
55 153 14.1177
56 153 14.1875
57 153 14.2379
58 153 14.2814
59 153 14.3137
60 153 14.3275
61 153 14.3251
62 153 14.2963
63 153 14.2607
64 153 14.2156
65 153 14.1467
66 153 14.0778
67 153 13.9942
68 153 13.9
69 153 13.78
70 153 13.6451
71 153 13.5051
72 153 13.3681
73 153 13.2234
74 153 13.0333
75 153 12.8812
76 153 12.6889
77 153 12.4904
78 153 12.2908
79 153 12.0617
80 153 11.8634
81 153 11.6174
82 153 11.382
83 153 11.1498
84 153 10.8763
85 153 10.6216
86 153 10.3224
87 153 9.96779
88 153 9.60779
89 153 9.17216
90 153 8.56622
91 153 7.79294
92 153 6.76964
93 153 5.46646
94 153 5.04842
95 153 4.62365
96 153 4.15783
97 153 3.62902
98 153 3.04781
99 153 2.40213
100 153 1.70131
101 153 0.975892
102 153 0.225752
103 153 -0.540373
104 153 -1.27029
105 153 -2.0079
106 153 -2.83911
107 153 -4.13582
108 153 -6.71974
109 153 -13.3668
110 153 -466.364
111 153 -466.364
112 153 -466.364
113 153 -466.364
114 153 -466.364
115 153 -466.364
116 153 -466.364
117 153 -466.364
118 153 -466.364
119 153 -466.364
0 154 -466.364
1 154 -466.364
2 154 -466.364
3 154 -466.364
4 154 -466.364
5 154 -466.364
6 154 -466.364
7 154 -466.364
8 154 -466.364
9 154 -466.364
10 154 -11.985
11 154 -8.583
12 154 -5.15889
13 154 -2.46406
14 154 -0.529122
15 154 0.7689
16 154 1.55902
17 154 2.13772
18 154 2.50329
19 154 2.79437
20 154 3.04708
21 154 3.27772
22 154 3.44959
23 154 3.56187
24 154 3.73935
25 154 4.03496
26 154 4.42029
27 154 4.96498
28 154 5.60665
29 154 6.21763
30 154 6.79511
31 154 7.30247
32 154 7.7941
33 154 8.2628
34 154 8.72322
35 154 9.14953
36 154 9.57168
37 154 9.97933
38 154 10.3609
39 154 10.7361
40 154 11.0936
41 154 11.416
42 154 11.7252
43 154 11.9977
44 154 12.2732
45 154 12.525
46 154 12.7478
47 154 12.9835
48 154 13.1831
49 154 13.3494
50 154 13.4912
51 154 13.6325
52 154 13.7535
53 154 13.8548
54 154 13.9571
55 154 14.0543
56 154 14.1192
57 154 14.1783
58 154 14.2214
59 154 14.2395
60 154 14.2454
61 154 14.2442
62 154 14.2119
63 154 14.1759
64 154 14.1191
65 154 14.0498
66 154 13.966
67 154 13.8737
68 154 13.7523
69 154 13.6183
70 154 13.5002
71 154 13.3771
72 154 13.2063
73 154 13.0504
74 154 12.8742
75 154 12.6976
76 154 12.5078
77 154 12.306
78 154 12.1111
79 154 11.8741
80 154 11.6471
81 154 11.4156
82 154 11.1623
83 154 10.9262
84 154 10.657
85 154 10.4107
86 154 10.1123
87 154 9.7586
88 154 9.37182
89 154 8.93073
90 154 8.42988
91 154 7.78316
92 154 6.98075
93 154 6.02734
94 154 5.41382
95 154 4.95187
96 154 4.47185
97 154 3.95829
98 154 3.38777
99 154 2.75874
100 154 2.07761
101 154 1.36819
102 154 0.650101
103 154 -0.0823143
104 154 -0.827207
105 154 -1.54816
106 154 -2.20728
107 154 -2.96802
108 154 -3.93217
109 154 -7.68298
110 154 -466.364
111 154 -466.364
112 154 -466.364
113 154 -466.364
114 154 -466.364
115 154 -466.364
116 154 -466.364
117 154 -466.364
118 154 -466.364
119 154 -466.364
0 155 -466.364
1 155 -466.364
2 155 -466.364
3 155 -466.364
4 155 -466.364
5 155 -466.364
6 155 -466.364
7 155 -466.364
8 155 -466.364
9 155 -466.364
10 155 -12.8568
11 155 -9.29953
12 155 -5.86707
13 155 -2.88256
14 155 -0.847254
15 155 0.467965
16 155 1.36784
17 155 1.97583
18 155 2.35167
19 155 2.67446
20 155 2.95982
21 155 3.22718
22 155 3.41405
23 155 3.54806
24 155 3.70696
25 155 3.943
26 155 4.32536
27 155 4.84232
28 155 5.47286
29 155 6.07257
30 155 6.63175
31 155 7.14974
32 155 7.64576
33 155 8.1286
34 155 8.57272
35 155 9.00393
36 155 9.44242
37 155 9.85056
38 155 10.2328
39 155 10.6112
40 155 10.9626
41 155 11.2924
42 155 11.6035
43 155 11.8929
44 155 12.149
45 155 12.4124
46 155 12.6514
47 155 12.8767
48 155 13.0696
49 155 13.2327
50 155 13.3774
51 155 13.5229
52 155 13.6618
53 155 13.7934
54 155 13.8765
55 155 13.975
56 155 14.0565
57 155 14.1044
58 155 14.1363
59 155 14.1619
60 155 14.167
61 155 14.1654
62 155 14.129
63 155 14.0731
64 155 14.0216
65 155 13.9459
66 155 13.86
67 155 13.7293
68 155 13.6039
69 155 13.5025
70 155 13.3621
71 155 13.211
72 155 13.0573
73 155 12.8852
74 155 12.7178
75 155 12.5188
76 155 12.3093
77 155 12.1313
78 155 11.9093
79 155 11.6924
80 155 11.4422
81 155 11.1692
82 155 10.926
83 155 10.6565
84 155 10.3902
85 155 10.1339
86 155 9.85941
87 155 9.52339
88 155 9.14648
89 155 8.7156
90 155 8.27072
91 155 7.74828
92 155 7.13048
93 155 6.45301
94 155 5.7915
95 155 5.28143
96 155 4.77192
97 155 4.25077
98 155 3.69037
99 155 3.08963
100 155 2.42017
101 155 1.73586
102 155 1.03556
103 155 0.320357
104 155 -0.393644
105 155 -1.06991
106 155 -1.60526
107 155 -1.91554
108 155 -1.89582
109 155 -3.90236
110 155 -466.364
111 155 -466.364
112 155 -466.364
113 155 -466.364
114 155 -466.364
115 155 -466.364
116 155 -466.364
117 155 -466.364
118 155 -466.364
119 155 -466.364
0 156 -466.364
1 156 -466.364
2 156 -466.364
3 156 -466.364
4 156 -466.364
5 156 -466.364
6 156 -466.364
7 156 -466.364
8 156 -466.364
9 156 -466.364
10 156 -14.697
11 156 -9.98911
12 156 -6.57521
13 156 -3.37252
14 156 -1.25932
15 156 0.132195
16 156 1.06598
17 156 1.75797
18 156 2.19249
19 156 2.54009
20 156 2.84681
21 156 3.11094
22 156 3.35422
23 156 3.53324
24 156 3.68109
25 156 3.88131
26 156 4.22156
27 156 4.6963
28 156 5.31901
29 156 5.90107
30 156 6.47584
31 156 6.98656
32 156 7.48621
33 156 7.9712
34 156 8.42554
35 156 8.86373
36 156 9.29048
37 156 9.70621
38 156 10.0944
39 156 10.4726
40 156 10.8195
41 156 11.1631
42 156 11.4702
43 156 11.7706
44 156 12.0458
45 156 12.3114
46 156 12.5404
47 156 12.7677
48 156 12.9635
49 156 13.14
50 156 13.3033
51 156 13.4527
52 156 13.5968
53 156 13.7091
54 156 13.7981
55 156 13.8856
56 156 13.9649
57 156 14.0461
58 156 14.0863
59 156 14.1059
60 156 14.1052
61 156 14.0794
62 156 14.0495
63 156 14.0078
64 156 13.9404
65 156 13.8333
66 156 13.7098
67 156 13.5944
68 156 13.4908
69 156 13.3582
70 156 13.1976
71 156 13.0358
72 156 12.8919
73 156 12.7185
74 156 12.5205
75 156 12.3439
76 156 12.1338
77 156 11.9348
78 156 11.699
79 156 11.4634
80 156 11.2176
81 156 10.9347
82 156 10.6718
83 156 10.3918
84 156 10.1309
85 156 9.86203
86 156 9.57484
87 156 9.26601
88 156 8.91491
89 156 8.5393
90 156 8.12025
91 156 7.68675
92 156 7.22436
93 156 6.68193
94 156 6.12696
95 156 5.60459
96 156 5.08385
97 156 4.53263
98 156 3.98001
99 156 3.39146
100 156 2.74171
101 156 2.07153
102 156 1.38617
103 156 0.692422
104 156 0.00355189
105 156 -0.662834
106 156 -1.24353
107 156 -1.68303
108 156 -3.3176
109 156 -466.364
110 156 -466.364
111 156 -466.364
112 156 -466.364
113 156 -466.364
114 156 -466.364
115 156 -466.364
116 156 -466.364
117 156 -466.364
118 156 -466.364
119 156 -466.364
0 157 -466.364
1 157 -466.364
2 157 -466.364
3 157 -466.364
4 157 -466.364
5 157 -466.364
6 157 -466.364
7 157 -466.364
8 157 -466.364
9 157 -466.364
10 157 -17.4798
11 157 -10.6284
12 157 -7.26483
13 157 -3.95467
14 157 -1.76773
15 157 -0.28778
16 157 0.75642
17 157 1.45988
18 157 1.95779
19 157 2.36082
20 157 2.69083
21 157 2.97856
22 157 3.24416
23 157 3.48328
24 157 3.67859
25 157 3.8534
26 157 4.11379
27 157 4.55921
28 157 5.14579
29 157 5.74548
30 157 6.31876
31 157 6.8265
32 157 7.30628
33 157 7.78049
34 157 8.25262
35 157 8.69423
36 157 9.1353
37 157 9.55357
38 157 9.94003
39 157 10.3029
40 157 10.6893
41 157 11.0248
42 157 11.3367
43 157 11.6309
44 157 11.9377
45 157 12.1978
46 157 12.4507
47 157 12.6747
48 157 12.8816
49 157 13.0509
50 157 13.2402
51 157 13.3825
52 157 13.522
53 157 13.6457
54 157 13.7524
55 157 13.8645
56 157 13.9418
57 157 13.9877
58 157 14.0098
59 157 14.0146
60 157 14.0016
61 157 14.0015
62 157 13.9938
63 157 13.9059
64 157 13.8101
65 157 13.7138
66 157 13.6054
67 157 13.4916
68 157 13.3465
69 157 13.1965
70 157 13.0489
71 157 12.8719
72 157 12.7247
73 157 12.5456
74 157 12.3538
75 157 12.147
76 157 11.9424
77 157 11.7364
78 157 11.4947
79 157 11.2424
80 157 10.9701
81 157 10.6872
82 157 10.4087
83 157 10.1145
84 157 9.83944
85 157 9.56495
86 157 9.28555
87 157 8.98823
88 157 8.67005
89 157 8.33387
90 157 7.96574
91 157 7.59911
92 157 7.20761
93 157 6.77477
94 157 6.29061
95 157 5.81779
96 157 5.31143
97 157 4.77177
98 157 4.22673
99 157 3.63957
100 157 3.00778
101 157 2.35773
102 157 1.69739
103 157 1.00869
104 157 0.326944
105 157 -0.331991
106 157 -1.00975
107 157 -1.76301
108 157 -3.96
109 157 -466.364
110 157 -466.364
111 157 -466.364
112 157 -466.364
113 157 -466.364
114 157 -466.364
115 157 -466.364
116 157 -466.364
117 157 -466.364
118 157 -466.364
119 157 -466.364
0 158 -466.364
1 158 -466.364
2 158 -466.364
3 158 -466.364
4 158 -466.364
5 158 -466.364
6 158 -466.364
7 158 -466.364
8 158 -466.364
9 158 -466.364
10 158 -466.364
11 158 -12.9916
12 158 -8.37716
13 158 -4.7232
14 158 -2.31311
15 158 -0.733185
16 158 0.373866
17 158 1.1512
18 158 1.68393
19 158 2.09312
20 158 2.47104
21 158 2.81403
22 158 3.10276
23 158 3.37179
24 158 3.6201
25 158 3.81808
26 158 4.04465
27 158 4.4359
28 158 4.95687
29 158 5.56668
30 158 6.12446
31 158 6.61871
32 158 7.1057
33 158 7.58993
34 158 8.06084
35 158 8.51367
36 158 8.95388
37 158 9.38631
38 158 9.7734
39 158 10.1641
40 158 10.5267
41 158 10.8684
42 158 11.2084
43 158 11.504
44 158 11.8146
45 158 12.0979
46 158 12.3475
47 158 12.5806
48 158 12.797
49 158 12.9762
50 158 13.1578
51 158 13.3127
52 158 13.4946
53 158 13.6187
54 158 13.726
55 158 13.8283
56 158 13.8956
57 158 13.9388
58 158 13.9646
59 158 13.9812
60 158 13.9693
61 158 13.9439
62 158 13.8931
63 158 13.8048
64 158 13.712
65 158 13.6011
66 158 13.4871
67 158 13.3388
68 158 13.2081
69 158 13.0459
70 158 12.8826
71 158 12.721
72 158 12.5439
73 158 12.3555
74 158 12.1733
75 158 11.9596
76 158 11.7366
77 158 11.5103
78 158 11.2581
79 158 10.9837
80 158 10.7086
81 158 10.4114
82 158 10.121
83 158 9.81461
84 158 9.526
85 158 9.24049
86 158 8.94279
87 158 8.65187
88 158 8.35456
89 158 8.08691
90 158 7.76577
91 158 7.46533
92 158 7.13934
93 158 6.78501
94 158 6.40373
95 158 5.95806
96 158 5.47616
97 158 4.97403
98 158 4.44028
99 158 3.88828
100 158 3.28379
101 158 2.64001
102 158 1.97491
103 158 1.30154
104 158 0.618883
105 158 -0.0864316
106 158 -0.861357
107 158 -1.8892
108 158 -4.45375
109 158 -466.364
110 158 -466.364
111 158 -466.364
112 158 -466.364
113 158 -466.364
114 158 -466.364
115 158 -466.364
116 158 -466.364
117 158 -466.364
118 158 -466.364
119 158 -466.364
0 159 -466.364
1 159 -466.364
2 159 -466.364
3 159 -466.364
4 159 -466.364
5 159 -466.364
6 159 -466.364
7 159 -466.364
8 159 -466.364
9 159 -466.364
10 159 -466.364
11 159 -15.6264
12 159 -9.66764
13 159 -5.66685
14 159 -2.9503
15 159 -1.23386
16 159 -0.0659881
17 159 0.780801
18 159 1.35159
19 159 1.80607
20 159 2.21051
21 159 2.58449
22 159 2.91195
23 159 3.21532
24 159 3.51272
25 159 3.75239
26 159 3.97155
27 159 4.30896
28 159 4.80451
29 159 5.39258
30 159 5.92228
31 159 6.4237
32 159 6.91517
33 159 7.38622
34 159 7.85412
35 159 8.31264
36 159 8.75554
37 159 9.19383
38 159 9.61671
39 159 10.0118
40 159 10.3898
41 159 10.7316
42 159 11.099
43 159 11.4089
44 159 11.7159
45 159 11.9907
46 159 12.2359
47 159 12.4854
48 159 12.7008
49 159 12.9122
50 159 13.1114
51 159 13.2655
52 159 13.4542
53 159 13.5865
54 159 13.697
55 159 13.7874
56 159 13.8649
57 159 13.9483
58 159 13.9669
59 159 13.9613
60 159 13.9218
61 159 13.8702
62 159 13.8033
63 159 13.7104
64 159 13.6084
65 159 13.4878
66 159 13.3549
67 159 13.2159
68 159 13.0513
69 159 12.8943
70 159 12.7207
71 159 12.5541
72 159 12.3478
73 159 12.1804
74 159 11.9616
75 159 11.7456
76 159 11.5142
77 159 11.2824
78 159 10.9957
79 159 10.7206
80 159 10.4168
