ply
format ascii 1.0
comment Created by Open3D
element vertex 3150
property double x
property double y
property double z
end_header
97 163 5.34459
98 163 4.91193
99 163 4.45577
100 163 3.92708
101 163 3.34966
102 163 2.73254
103 163 2.06669
104 163 1.32224
105 163 0.316626
106 163 -1.16335
107 163 -3.8458
108 163 -24.238
109 163 -24.238
110 163 -24.238
111 163 -24.238
112 163 -24.238
113 163 -24.238
114 163 -24.238
115 163 -24.238
116 163 -24.238
117 163 -24.238
118 163 -24.238
119 163 -24.238
0 164 -24.238
1 164 -24.238
2 164 -24.238
3 164 -24.238
4 164 -24.238
5 164 -24.238
6 164 -24.238
7 164 -24.238
8 164 -24.238
9 164 -24.238
10 164 -24.238
11 164 -24.238
12 164 -24.238
13 164 -13.3138
14 164 -8.05262
15 164 -4.99574
16 164 -3.07923
17 164 -1.75289
18 164 -0.737462
19 164 0.0190693
20 164 0.584575
21 164 0.990949
22 164 1.42409
23 164 1.85471
24 164 2.26524
25 164 2.66512
26 164 3.05355
27 164 3.44481
28 164 3.80968
29 164 4.20737
30 164 4.66789
31 164 5.1246
32 164 5.59235
33 164 6.04515
34 164 6.53595
35 164 7.05071
36 164 7.54314
37 164 8.06278
38 164 8.59511
39 164 9.13627
40 164 9.61918
41 164 10.0531
42 164 10.4523
43 164 10.8145
44 164 11.1578
45 164 11.4709
46 164 11.7182
47 164 11.9726
48 164 12.2122
49 164 12.4984
50 164 12.7583
51 164 13.034
52 164 13.287
53 164 13.529
54 164 13.7516
55 164 13.959
56 164 14.1368
57 164 14.253
58 164 14.2955
59 164 14.294
60 164 14.231
61 164 14.0942
62 164 13.9388
63 164 13.7684
64 164 13.5756
65 164 13.3622
66 164 13.1208
67 164 12.8663
68 164 12.6059
69 164 12.3359
70 164 12.0366
71 164 11.7352
72 164 11.4358
73 164 11.1359
74 164 10.8115
75 164 10.4958
76 164 10.1457
77 164 9.79969
78 164 9.43307
79 164 9.06568
80 164 8.72215
81 164 8.37037
82 164 8.0584
83 164 7.74112
84 164 7.42184
85 164 7.14347
86 164 6.86239
87 164 6.618
88 164 6.43187
89 164 6.28079
90 164 6.2285
91 164 6.19753
92 164 6.22031
93 164 6.17541
94 164 6.04593
95 164 5.88315
96 164 5.63299
97 164 5.31529
98 164 4.89255
99 164 4.4365
100 164 3.92394
101 164 3.36239
102 164 2.75903
103 164 2.09761
104 164 1.3413
105 164 0.338342
106 164 -1.4319
107 164 -5.63179
108 164 -24.238
109 164 -24.238
110 164 -24.238
111 164 -24.238
112 164 -24.238
113 164 -24.238
114 164 -24.238
115 164 -24.238
116 164 -24.238
117 164 -24.238
118 164 -24.238
119 164 -24.238
0 165 -24.238
1 165 -24.238
2 165 -24.238
3 165 -24.238
4 165 -24.238
5 165 -24.238
6 165 -24.238
7 165 -24.238
8 165 -24.238
9 165 -24.238
10 165 -24.238
11 165 -24.238
12 165 -24.238
13 165 -17.3781
14 165 -9.60616
15 165 -6.06466
16 165 -3.93463
17 165 -2.3932
18 165 -1.2957
19 165 -0.437646
20 165 0.232235
21 165 0.654476
22 165 1.07956
23 165 1.4871
24 165 1.90301
25 165 2.3166
26 165 2.72595
27 165 3.1246
28 165 3.51073
29 165 3.90288
30 165 4.34995
31 165 4.77425
32 165 5.23943
33 165 5.70951
34 165 6.21681
35 165 6.73101
36 165 7.26454
37 165 7.80641
38 165 8.35452
39 165 8.90806
40 165 9.42474
41 165 9.87569
42 165 10.3061
43 165 10.7138
44 165 11.0817
45 165 11.4008
46 165 11.6844
47 165 11.9329
48 165 12.2016
49 165 12.4707
50 165 12.7565
51 165 13.0438
52 165 13.3137
53 165 13.5883
54 165 13.8583
55 165 14.1095
56 165 14.2941
57 165 14.4177
58 165 14.479
59 165 14.4683
60 165 14.3929
61 165 14.2542
62 165 14.0876
63 165 13.902
64 165 13.6953
65 165 13.444
66 165 13.1799
67 165 12.8944
68 165 12.6039
69 165 12.2834
70 165 11.9401
71 165 11.5886
72 165 11.235
73 165 10.8988
74 165 10.5594
75 165 10.1932
76 165 9.81119
77 165 9.41789
78 165 9.02947
79 165 8.65908
80 165 8.30736
81 165 7.97584
82 165 7.65142
83 165 7.34001
84 165 7.05245
85 165 6.75409
86 165 6.48127
87 165 6.24696
88 165 6.08007
89 165 5.95818
90 165 5.92536
91 165 5.90561
92 165 5.92917
93 165 5.91837
94 165 5.83249
95 165 5.70027
96 165 5.47406
97 165 5.18517
98 165 4.81981
99 165 4.34291
100 165 3.86394
101 165 3.31029
102 165 2.73767
103 165 2.10636
104 165 1.47811
105 165 0.839159
106 165 0.119107
107 165 -1.85925
108 165 -24.238
109 165 -24.238
110 165 -24.238
111 165 -24.238
112 165 -24.238
113 165 -24.238
114 165 -24.238
115 165 -24.238
116 165 -24.238
117 165 -24.238
118 165 -24.238
119 165 -24.238
0 166 -24.238
1 166 -24.238
2 166 -24.238
3 166 -24.238
4 166 -24.238
5 166 -24.238
6 166 -24.238
7 166 -24.238
8 166 -24.238
9 166 -24.238
10 166 -24.238
11 166 -24.238
12 166 -24.238
13 166 -24.238
14 166 -13.2278
15 166 -7.54697
16 166 -4.98416
17 166 -3.13468
18 166 -1.89892
19 166 -0.930277
20 166 -0.190502
21 166 0.305741
22 166 0.719164
23 166 1.13781
24 166 1.53366
25 166 1.95087
26 166 2.35246
27 166 2.77728
28 166 3.17086
29 166 3.55535
30 166 3.98043
31 166 4.41737
32 166 4.89133
33 166 5.37436
34 166 5.87528
35 166 6.39639
36 166 6.94791
37 166 7.51282
38 166 8.08869
39 166 8.68116
40 166 9.24474
41 166 9.73699
42 166 10.2032
43 166 10.6375
44 166 11.0296
45 166 11.3912
46 166 11.6967
47 166 11.9675
48 166 12.2303
49 166 12.5155
50 166 12.8092
51 166 13.1205
52 166 13.4222
53 166 13.7269
54 166 14.0302
55 166 14.2688
56 166 14.4814
57 166 14.6248
58 166 14.7035
59 166 14.6973
60 166 14.6212
61 166 14.478
62 166 14.3091
63 166 14.1085
64 166 13.8633
65 166 13.6005
66 166 13.3064
67 166 12.9755
68 166 12.6203
69 166 12.2467
70 166 11.8501
71 166 11.4454
72 166 11.052
73 166 10.6577
74 166 10.2636
75 166 9.84725
76 166 9.43462
77 166 9.03736
78 166 8.62885
79 166 8.26574
80 166 7.90798
81 166 7.55559
82 166 7.21064
83 166 6.91552
84 166 6.6284
85 166 6.34359
86 166 6.09002
87 166 5.87917
88 166 5.72196
89 166 5.64307
90 166 5.59658
91 166 5.58864
92 166 5.60526
93 166 5.62242
94 166 5.57308
95 166 5.45846
96 166 5.28127
97 166 5.00523
98 166 4.65258
99 166 4.23123
100 166 3.76344
101 166 3.22147
102 166 2.63417
103 166 2.0271
104 166 1.42787
105 166 0.905036
106 166 -0.793754
107 166 -24.238
108 166 -24.238
109 166 -24.238
110 166 -24.238
111 166 -24.238
112 166 -24.238
113 166 -24.238
114 166 -24.238
115 166 -24.238
116 166 -24.238
117 166 -24.238
118 166 -24.238
119 166 -24.238
0 167 -24.238
1 167 -24.238
2 167 -24.238
3 167 -24.238
4 167 -24.238
5 167 -24.238
6 167 -24.238
7 167 -24.238
8 167 -24.238
9 167 -24.238
10 167 -24.238
11 167 -24.238
12 167 -24.238
13 167 -24.238
14 167 -24.238
15 167 -10.8512
16 167 -6.61241
17 167 -4.17766
18 167 -2.62849
19 167 -1.49426
20 167 -0.673687
21 167 -0.111507
22 167 0.316922
23 167 0.725561
24 167 1.1541
25 167 1.56648
26 167 1.99607
27 167 2.39119
28 167 2.78789
29 167 3.23344
30 167 3.6486
31 167 4.08977
32 167 4.5691
33 167 5.04588
34 167 5.5501
35 167 6.08802
36 167 6.64786
37 167 7.22907
38 167 7.82621
39 167 8.44863
40 167 9.03771
41 167 9.59798
42 167 10.1043
43 167 10.579
44 167 11.011
45 167 11.4052
46 167 11.7687
47 167 12.0546
48 167 12.3159
49 167 12.6298
50 167 12.9253
51 167 13.2644
52 167 13.5942
53 167 13.9363
54 167 14.2329
55 167 14.4884
56 167 14.7185
57 167 14.8969
58 167 14.9901
59 167 14.9849
60 167 14.9155
61 167 14.7643
62 167 14.5709
63 167 14.3438
64 167 14.0846
65 167 13.7929
66 167 13.4574
67 167 13.0823
68 167 12.6752
69 167 12.2511
70 167 11.7808
71 167 11.3352
72 167 10.8627
73 167 10.3995
74 167 9.9699
75 167 9.52704
76 167 9.05812
77 167 8.64531
78 167 8.23746
79 167 7.84458
80 167 7.48087
81 167 7.12268
82 167 6.79678
83 167 6.4942
84 167 6.18843
85 167 5.91426
86 167 5.65735
87 167 5.49469
88 167 5.35893
89 167 5.26233
90 167 5.24184
91 167 5.22186
92 167 5.24894
93 167 5.2829
94 167 5.268
95 167 5.16559
96 167 5.02713
97 167 4.75647
98 167 4.43592
99 167 4.02407
100 167 3.50066
101 167 3.002
102 167 2.40773
103 167 1.79392
104 167 1.113
105 167 0.616215
106 167 -1.78059
107 167 -24.238
108 167 -24.238
109 167 -24.238
110 167 -24.238
111 167 -24.238
112 167 -24.238
113 167 -24.238
114 167 -24.238
115 167 -24.238
116 167 -24.238
117 167 -24.238
118 167 -24.238
119 167 -24.238
0 168 -24.238
1 168 -24.238
2 168 -24.238
3 168 -24.238
4 168 -24.238
5 168 -24.238
6 168 -24.238
7 168 -24.238
8 168 -24.238
9 168 -24.238
10 168 -24.238
11 168 -24.238
12 168 -24.238
13 168 -24.238
14 168 -24.238
15 168 -24.238
16 168 -10.295
17 168 -5.75922
18 168 -3.69438
19 168 -2.28739
20 168 -1.3003
21 168 -0.642286
22 168 -0.123103
23 168 0.292295
24 168 0.706821
25 168 1.1402
26 168 1.57043
27 168 1.98602
28 168 2.43107
29 168 2.88293
30 168 3.32958
31 168 3.7764
32 168 4.23494
33 168 4.74569
34 168 5.25873
35 168 5.80797
36 168 6.36816
37 168 6.95954
38 168 7.58941
39 168 8.24736
40 168 8.88337
41 168 9.47907
42 168 10.0213
43 168 10.5246
44 168 11.0071
45 168 11.4475
46 168 11.828
47 168 12.1754
48 168 12.482
49 168 12.7842
50 168 13.1324
51 168 13.4849
52 168 13.8452
53 168 14.1961
54 168 14.5114
55 168 14.7614
56 168 15.0067
57 168 15.1941
58 168 15.3043
59 168 15.3289
60 168 15.2619
61 168 15.1034
62 168 14.9016
63 168 14.6561
64 168 14.378
65 168 14.0502
66 168 13.6702
67 168 13.2273
68 168 12.7623
69 168 12.259
70 168 11.746
71 168 11.2079
72 168 10.7085
73 168 10.1278
74 168 9.62111
75 168 9.13488
76 168 8.66348
77 168 8.23078
78 168 7.79047
79 168 7.39602
80 168 7.01137
81 168 6.64216
82 168 6.32652
83 168 6.01455
84 168 5.72474
85 168 5.47938
86 168 5.24238
87 168 5.07028
88 168 4.96739
89 168 4.89528
90 168 4.84322
91 168 4.84229
92 168 4.86429
93 168 4.91429
94 168 4.91651
95 168 4.83989
96 168 4.68817
97 168 4.4557
98 168 4.13907
99 168 3.73871
100 168 3.24121
101 168 2.68227
102 168 2.07597
103 168 1.39483
104 168 0.688927
105 168 -0.488834
106 168 -24.238
107 168 -24.238
108 168 -24.238
109 168 -24.238
110 168 -24.238
111 168 -24.238
112 168 -24.238
113 168 -24.238
114 168 -24.238
115 168 -24.238
116 168 -24.238
117 168 -24.238
118 168 -24.238
119 168 -24.238
0 169 -24.238
1 169 -24.238
2 169 -24.238
3 169 -24.238
4 169 -24.238
5 169 -24.238
6 169 -24.238
7 169 -24.238
8 169 -24.238
9 169 -24.238
10 169 -24.238
11 169 -24.238
12 169 -24.238
13 169 -24.238
14 169 -24.238
15 169 -24.238
16 169 -15.7148
17 169 -8.20744
18 169 -5.09862
19 169 -3.36334
20 169 -2.10809
21 169 -1.30514
22 169 -0.660676
23 169 -0.195543
24 169 0.243813
25 169 0.702137
26 169 1.14056
27 169 1.59073
28 169 2.04704
29 169 2.51146
30 169 2.9881
31 169 3.47964
32 169 3.93521
33 169 4.43932
34 169 4.96292
35 169 5.5134
36 169 6.10817
37 169 6.74781
38 169 7.37953
39 169 8.05555
40 169 8.74432
41 169 9.38839
42 169 9.98786
43 169 10.5251
44 169 11.0386
45 169 11.5132
46 169 11.9445
47 169 12.3464
48 169 12.714
49 169 13.0404
50 169 13.3844
51 169 13.7779
52 169 14.1526
53 169 14.5037
54 169 14.8394
55 169 15.108
56 169 15.3676
57 169 15.5788
58 169 15.7188
59 169 15.7566
60 169 15.68
61 169 15.525
62 169 15.3224
63 169 15.0556
64 169 14.7369
65 169 14.3506
66 169 13.9078
67 169 13.418
68 169 12.8886
69 169 12.322
70 169 11.7434
71 169 11.1056
72 169 10.485
73 169 9.85927
74 169 9.25776
75 169 8.73125
76 169 8.24365
77 169 7.76875
78 169 7.31589
79 169 6.90591
80 169 6.51657
81 169 6.17807
82 169 5.83317
83 169 5.53781
84 169 5.26624
85 169 5.00687
86 169 4.79808
87 169 4.65509
88 169 4.54558
89 169 4.46928
90 169 4.43046
91 169 4.42362
92 169 4.46219
93 169 4.49606
94 169 4.51945
95 169 4.49067
96 169 4.34978
97 169 4.12887
98 169 3.82487
99 169 3.43552
100 169 2.92488
101 169 2.3187
102 169 1.64694
103 169 0.876889
104 169 0.223694
105 169 -1.12379
106 169 -24.238
107 169 -24.238
108 169 -24.238
109 169 -24.238
110 169 -24.238
111 169 -24.238
112 169 -24.238
113 169 -24.238
114 169 -24.238
115 169 -24.238
116 169 -24.238
117 169 -24.238
118 169 -24.238
119 169 -24.238
0 170 -24.238
1 170 -24.238
2 170 -24.238
3 170 -24.238
4 170 -24.238
5 170 -24.238
6 170 -24.238
7 170 -24.238
8 170 -24.238
9 170 -24.238
10 170 -24.238
11 170 -24.238
12 170 -24.238
13 170 -24.238
14 170 -24.238
15 170 -24.238
16 170 -24.238
17 170 -12.441
18 170 -7.44353
19 170 -4.72709
20 170 -3.11602
21 170 -2.12193
22 170 -1.29738
23 170 -0.707956
24 170 -0.270265
25 170 0.229029
26 170 0.698189
27 170 1.1732
28 170 1.66226
29 170 2.15943
30 170 2.64143
31 170 3.15265
32 170 3.67982
33 170 4.16932
34 170 4.70457
35 170 5.26262
36 170 5.86169
37 170 6.4981
38 170 7.16491
39 170 7.88055
40 170 8.61568
41 170 9.30137
42 170 9.93947
43 170 10.5425
44 170 11.1051
45 170 11.6369
46 170 12.1047
47 170 12.5523
48 170 12.9687
49 170 13.3357
50 170 13.7206
51 170 14.1339
52 170 14.5369
53 170 14.9139
54 170 15.2589
55 170 15.5596
56 170 15.8268
57 170 16.0548
58 170 16.1892
59 170 16.2501
60 170 16.1931
61 170 16.0403
62 170 15.8257
63 170 15.5313
64 170 15.1717
65 170 14.7443
66 170 14.2403
67 170 13.7096
68 170 13.0964
69 170 12.422
70 170 11.7481
71 170 11.0201
72 170 10.2731
73 170 9.5556
74 170 8.88596
75 170 8.29657
76 170 7.76862
77 170 7.2843
78 170 6.8183
79 170 6.39668
80 170 5.99963
81 170 5.65519
82 170 5.3172
83 170 5.0132
84 170 4.73985
85 170 4.51962
86 170 4.33857
87 170 4.18159
88 170 4.0892
89 170 4.03
90 170 3.98237
91 170 3.98912
92 170 4.01886
93 170 4.05147
94 170 4.10694
95 170 4.08558
96 170 3.98306
97 170 3.73571
98 170 3.43415
99 170 3.05905
100 170 2.55444
101 170 1.92453
102 170 1.18806
103 170 0.25029
104 170 -0.963802
105 170 -5.51568
106 170 -24.238
107 170 -24.238
108 170 -24.238
109 170 -24.238
110 170 -24.238
111 170 -24.238
112 170 -24.238
113 170 -24.238
114 170 -24.238
115 170 -24.238
116 170 -24.238
117 170 -24.238
118 170 -24.238
119 170 -24.238
0 171 -24.238
1 171 -24.238
2 171 -24.238
3 171 -24.238
4 171 -24.238
5 171 -24.238
6 171 -24.238
7 171 -24.238
8 171 -24.238
9 171 -24.238
10 171 -24.238
11 171 -24.238
12 171 -24.238
13 171 -24.238
14 171 -24.238
15 171 -24.238
16 171 -24.238
17 171 -24.238
18 171 -12.0138
19 171 -7.23824
20 171 -4.50024
21 171 -3.09756
22 171 -2.05776
23 171 -1.25539
24 171 -0.740365
25 171 -0.307483
26 171 0.2352
27 171 0.753987
28 171 1.27203
29 171 1.77582
30 171 2.30788
31 171 2.84381
32 171 3.3708
33 171 3.91319
34 171 4.4719
35 171 5.01913
36 171 5.63613
37 171 6.28789
38 171 6.9753
39 171 7.70904
40 171 8.47505
41 171 9.19462
42 171 9.88332
43 171 10.5326
44 171 11.1631
45 171 11.7395
46 171 12.2837
47 171 12.7942
48 171 13.2557
49 171 13.7126
50 171 14.1261
51 171 14.5813
52 171 15.0225
53 171 15.4108
54 171 15.7853
55 171 16.085
56 171 16.3695
57 171 16.6083
58 171 16.762
59 171 16.8339
60 171 16.7959
61 171 16.6306
62 171 16.3954
63 171 16.0886
64 171 15.6893
65 171 15.2196
66 171 14.6662
67 171 14.0406
68 171 13.3089
69 171 12.5509
70 171 11.7183
71 171 10.8854
72 171 10.035
73 171 9.2334
74 171 8.51791
75 171 7.86804
76 171 7.24385
77 171 6.73434
78 171 6.24567
79 171 5.80819
80 171 5.4364
81 171 5.0563
82 171 4.74463
83 171 4.45493
84 171 4.18772
85 171 3.96897
86 171 3.80529
87 171 3.66889
88 171 3.58279
89 171 3.55682
90 171 3.53651
91 171 3.54345
92 171 3.57106
93 171 3.61592
94 171 3.66736
95 171 3.65667
96 171 3.57832
97 171 3.35643
98 171 3.05717
99 171 2.63557
100 171 2.11427
101 171 1.47044
102 171 0.702817
103 171 -0.0203814
104 171 -1.50877
105 171 -24.238
106 171 -24.238
107 171 -24.238
108 171 -24.238
109 171 -24.238
110 171 -24.238
111 171 -24.238
112 171 -24.238
113 171 -24.238
114 171 -24.238
115 171 -24.238
116 171 -24.238
117 171 -24.238
118 171 -24.238
119 171 -24.238
0 172 -24.238
1 172 -24.238
2 172 -24.238
3 172 -24.238
4 172 -24.238
5 172 -24.238
6 172 -24.238
7 172 -24.238
8 172 -24.238
9 172 -24.238
10 172 -24.238
11 172 -24.238
12 172 -24.238
13 172 -24.238
14 172 -24.238
15 172 -24.238
16 172 -24.238
17 172 -24.238
18 172 -24.238
19 172 -12.9099
20 172 -6.91849
21 172 -4.58391
22 172 -3.06686
23 172 -1.98472
24 172 -1.26626
25 172 -0.753771
26 172 -0.227552
27 172 0.302802
28 172 0.865495
29 172 1.4272
30 172 1.96386
31 172 2.5146
32 172 3.07237
33 172 3.64646
34 172 4.20964
35 172 4.79488
36 172 5.41375
37 172 6.08832
38 172 6.78407
39 172 7.55147
40 172 8.33973
41 172 9.10836
42 172 9.82353
43 172 10.5257
44 172 11.2025
45 172 11.8476
46 172 12.4606
47 172 13.0439
48 172 13.5974
49 172 14.1091
50 172 14.6038
51 172 15.0958
52 172 15.5632
53 172 16.0159
54 172 16.4163
55 172 16.7397
56 172 17.0345
57 172 17.2813
58 172 17.4408
59 172 17.526
60 172 17.4797
61 172 17.3186
62 172 17.0968
63 172 16.7635
64 172 16.3058
65 172 15.7716
66 172 15.1209
67 172 14.3994
68 172 13.5736
69 172 12.6942
70 172 11.7086
71 172 10.7242
72 172 9.80549
73 172 8.90413
74 172 8.1079
75 172 7.3805
76 172 6.71784
77 172 6.129
78 172 5.63327
79 172 5.15869
80 172 4.7533
81 172 4.39394
82 172 4.06808
83 172 3.80187
84 172 3.56304
85 172 3.35228
86 172 3.20191
87 172 3.09453
88 172 3.02954
89 172 3.00956
90 172 3.02495
91 172 3.06348
92 172 3.12166
93 172 3.15311
94 172 3.19149
95 172 3.19589
96 172 3.11861
97 172 2.92095
98 172 2.64182
99 172 2.18893
100 172 1.65044
101 172 0.98004
102 172 0.208324
103 172 -0.631396
104 172 -2.775
105 172 -24.238
106 172 -24.238
107 172 -24.238
108 172 -24.238
109 172 -24.238
110 172 -24.238
111 172 -24.238
112 172 -24.238
113 172 -24.238
114 172 -24.238
115 172 -24.238
116 172 -24.238
117 172 -24.238
118 172 -24.238
119 172 -24.238
0 173 -24.238
1 173 -24.238
2 173 -24.238
3 173 -24.238
4 173 -24.238
5 173 -24.238
6 173 -24.238
7 173 -24.238
8 173 -24.238
9 173 -24.238
10 173 -24.238
11 173 -24.238
12 173 -24.238
13 173 -24.238
14 173 -24.238
15 173 -24.238
16 173 -24.238
17 173 -24.238
18 173 -24.238
19 173 -24.238
20 173 -11.4363
21 173 -7.05614
22 173 -4.60471
23 173 -3.01405
24 173 -1.96221
25 173 -1.21649
26 173 -0.671096
27 173 -0.0995665
28 173 0.500228
29 173 1.06744
30 173 1.62824
31 173 2.19629
32 173 2.80025
33 173 3.36659
34 173 3.96149
35 173 4.57998
36 173 5.19995
37 173 5.86626
38 173 6.58103
39 173 7.36399
40 173 8.17705
41 173 8.97921
42 173 9.75889
43 173 10.5133
44 173 11.2272
45 173 11.9414
46 173 12.6212
47 173 13.2706
48 173 13.8919
49 173 14.4527
50 173 15.0229
51 173 15.6227
52 173 16.1835
53 173 16.6751
54 173 17.1434
55 173 17.5297
56 173 17.8313
57 173 18.0934
58 173 18.2531
59 173 18.3377
60 173 18.3156
61 173 18.1666
62 173 17.9111
63 173 17.5274
64 173 17.0277
65 173 16.3912
66 173 15.6747
67 173 14.7989
68 173 13.864
69 173 12.8413
70 173 11.7237
71 173 10.6405
72 173 9.61898
73 173 8.62771
74 173 7.73152
75 173 6.92072
76 173 6.15163
77 173 5.53072
78 173 4.95368
79 173 4.45354
80 173 4.02808
81 173 3.67203
82 173 3.35545
83 173 3.08044
84 173 2.86382
85 173 2.68519
86 173 2.54449
87 173 2.48518
88 173 2.45071
89 173 2.44907
90 173 2.48484
91 173 2.55653
92 173 2.63053
93 173 2.70773
94 173 2.7588
95 173 2.78969
96 173 2.71513
97 173 2.51325
98 173 2.17336
99 173 1.72021
100 173 1.14232
101 173 0.466025
102 173 -0.234979
103 173 -1.51168
104 173 -24.238
105 173 -24.238
106 173 -24.238
107 173 -24.238
108 173 -24.238
109 173 -24.238
110 173 -24.238
111 173 -24.238
112 173 -24.238
113 173 -24.238
114 173 -24.238
115 173 -24.238
116 173 -24.238
117 173 -24.238
118 173 -24.238
119 173 -24.238
0 174 -24.238
1 174 -24.238
2 174 -24.238
3 174 -24.238
4 174 -24.238
5 174 -24.238
6 174 -24.238
7 174 -24.238
8 174 -24.238
9 174 -24.238
10 174 -24.238
11 174 -24.238
12 174 -24.238
13 174 -24.238
14 174 -24.238
15 174 -24.238
16 174 -24.238
17 174 -24.238
18 174 -24.238
19 174 -24.238
20 174 -24.238
21 174 -11.1542
22 174 -6.99586
23 174 -4.5572
24 174 -2.94629
25 174 -1.8617
26 174 -1.12368
27 174 -0.502884
28 174 0.0993685
29 174 0.733139
30 174 1.31589
31 174 1.88898
32 174 2.49087
33 174 3.07581
34 174 3.70612
35 174 4.32194
36 174 4.96667
37 174 5.65328
38 174 6.36404
39 174 7.15612
40 174 8.0147
41 174 8.85406
42 174 9.66404
43 174 10.4722
44 174 11.2523
45 174 12.0209
46 174 12.7522
47 174 13.4618
48 174 14.1208
49 174 14.7672
50 174 15.4131
51 174 16.1113
52 174 16.7762
53 174 17.3519
54 174 17.8854
55 174 18.3263
56 174 18.6858
57 174 18.9673
58 174 19.1734
59 174 19.2818
60 174 19.2486
61 174 19.0867
62 174 18.8223
63 174 18.3954
64 174 17.8353
65 174 17.1501
66 174 16.2821
67 174 15.2938
68 174 14.1906
69 174 13.0045
70 174 11.7707
71 174 10.5643
72 174 9.42931
73 174 8.35926
74 174 7.34995
75 174 6.43376
76 174 5.59834
77 174 4.89018
78 174 4.23985
79 174 3.70573
80 174 3.23909
81 174 2.86863
82 174 2.56014
83 174 2.29826
84 174 2.09233
85 174 1.93621
86 174 1.83477
87 174 1.78499
88 174 1.8053
89 174 1.87826
90 174 1.94002
91 174 2.058
92 174 2.17876
93 174 2.2882
94 174 2.37925
95 174 2.41379
96 174 2.34777
97 174 2.10059
98 174 1.71456
99 174 1.21512
100 174 0.642838
101 174 -0.0696922
102 174 -0.932306
103 174 -3.11206
104 174 -24.238
105 174 -24.238
106 174 -24.238
107 174 -24.238
108 174 -24.238
109 174 -24.238
110 174 -24.238
111 174 -24.238
112 174 -24.238
113 174 -24.238
114 174 -24.238
115 174 -24.238
116 174 -24.238
117 174 -24.238
118 174 -24.238
119 174 -24.238
0 175 -24.238
1 175 -24.238
2 175 -24.238
3 175 -24.238
4 175 -24.238
5 175 -24.238
6 175 -24.238
7 175 -24.238
8 175 -24.238
9 175 -24.238
10 175 -24.238
11 175 -24.238
12 175 -24.238
13 175 -24.238
14 175 -24.238
15 175 -24.238
16 175 -24.238
17 175 -24.238
18 175 -24.238
19 175 -24.238
20 175 -24.238
21 175 -24.238
22 175 -11.3302
23 175 -6.8425
24 175 -4.61412
25 175 -2.94232
26 175 -1.77905
27 175 -0.965109
28 175 -0.335227
29 175 0.324791
30 175 0.973227
31 175 1.57923
32 175 2.17941
33 175 2.79144
34 175 3.4321
35 175 4.06979
36 175 4.73228
37 175 5.42131
38 175 6.16626
39 175 6.96913
40 175 7.83782
41 175 8.69781
42 175 9.56138
43 175 10.4144
44 175 11.264
45 175 12.0691
46 175 12.8534
47 175 13.6229
48 175 14.3424
49 175 15.0385
50 175 15.7925
51 175 16.5723
52 175 17.3286
53 175 18.0039
54 175 18.6152
55 175 19.1273
56 175 19.5489
57 175 19.8776
58 175 20.1448
59 175 20.2769
60 175 20.2954
61 175 20.1477
62 175 19.8218
63 175 19.3936
64 175 18.7731
65 175 17.977
66 175 17.0044
67 175 15.846
68 175 14.6017
69 175 13.2072
70 175 11.8455
71 175 10.5432
72 175 9.2685
73 175 8.07489
74 175 6.96906
75 175 5.95232
76 175 5.02018
77 175 4.20099
78 175 3.47451
79 175 2.87369
80 175 2.3746
81 175 1.98202
82 175 1.6707
83 175 1.42736
84 175 1.24937
85 175 1.11299
86 175 1.06161
87 175 1.05592
88 175 1.11867
89 175 1.2352
90 175 1.40131
91 175 1.55431
92 175 1.7309
93 175 1.87149
94 175 2.00072
95 175 2.05352
96 175 1.95399
97 175 1.65695
98 175 1.2315
99 175 0.724071
100 175 0.106709
101 175 -0.560051
102 175 -2.2529
103 175 -24.238
104 175 -24.238
105 175 -24.238
106 175 -24.238
107 175 -24.238
108 175 -24.238
109 175 -24.238
110 175 -24.238
111 175 -24.238
112 175 -24.238
113 175 -24.238
114 175 -24.238
115 175 -24.238
116 175 -24.238
117 175 -24.238
118 175 -24.238
119 175 -24.238
0 176 -24.238
1 176 -24.238
2 176 -24.238
3 176 -24.238
4 176 -24.238
5 176 -24.238
6 176 -24.238
7 176 -24.238
8 176 -24.238
9 176 -24.238
10 176 -24.238
11 176 -24.238
12 176 -24.238
13 176 -24.238
14 176 -24.238
15 176 -24.238
16 176 -24.238
17 176 -24.238
18 176 -24.238
19 176 -24.238
20 176 -24.238
21 176 -24.238
22 176 -24.238
23 176 -10.5078
24 176 -6.68107
25 176 -4.5316
26 176 -2.80799
27 176 -1.577
28 176 -0.774147
29 176 -0.122859
30 176 0.541673
31 176 1.19789
32 176 1.84202
33 176 2.48415
34 176 3.14413
35 176 3.80642
36 176 4.49646
37 176 5.18032
38 176 5.92171
39 176 6.74356
40 176 7.60539
41 176 8.52595
42 176 9.43436
43 176 10.3188
44 176 11.2115
45 176 12.0667
46 176 12.9306
47 176 13.7405
48 176 14.5591
49 176 15.3469
50 176 16.1726
51 176 17.0238
52 176 17.8781
53 176 18.6601
54 176 19.3333
55 176 19.9079
56 176 20.3914
57 176 20.7837
58 176 21.0909
59 176 21.2704
60 176 21.2993
61 176 21.2129
62 176 20.9648
63 176 20.5038
64 176 19.8776
65 176 18.9849
66 176 17.8862
67 176 16.5571
68 176 15.0814
69 176 13.5663
70 176 12.0553
71 176 10.594
72 176 9.20991
73 176 7.87078
74 176 6.60889
75 176 5.47593
76 176 4.43809
77 176 3.51103
78 176 2.70021
79 176 2.02974
80 176 1.46517
81 176 1.01658
82 176 0.721487
83 176 0.469759
84 176 0.304323
85 176 0.214812
86 176 0.182449
87 176 0.235894
88 176 0.388944
89 176 0.574842
90 176 0.822008
91 176 1.05142
92 176 1.27249
93 176 1.43736
94 176 1.59269
95 176 1.63761
96 176 1.51383
97 176 1.16947
98 176 0.654947
99 176 0.0764353
100 176 -0.343835
101 176 -0.668755
102 176 -2.65712
103 176 -24.238
104 176 -24.238
105 176 -24.238
106 176 -24.238
107 176 -24.238
108 176 -24.238
109 176 -24.238
110 176 -24.238
111 176 -24.238
112 176 -24.238
113 176 -24.238
114 176 -24.238
115 176 -24.238
116 176 -24.238
117 176 -24.238
118 176 -24.238
119 176 -24.238
0 177 -24.238
1 177 -24.238
2 177 -24.238
3 177 -24.238
4 177 -24.238
5 177 -24.238
6 177 -24.238
7 177 -24.238
8 177 -24.238
9 177 -24.238
10 177 -24.238
11 177 -24.238
12 177 -24.238
13 177 -24.238
14 177 -24.238
15 177 -24.238
16 177 -24.238
17 177 -24.238
18 177 -24.238
19 177 -24.238
20 177 -24.238
21 177 -24.238
22 177 -24.238
23 177 -24.238
24 177 -11.3781
25 177 -6.49874
26 177 -4.30204
27 177 -2.59209
28 177 -1.34556
29 177 -0.498593
30 177 0.0790742
31 177 0.754339
32 177 1.421
33 177 2.10128
34 177 2.78772
35 177 3.50246
36 177 4.20584
37 177 4.94875
38 177 5.71503
39 177 6.49153
40 177 7.39136
41 177 8.32686
42 177 9.24382
43 177 10.1619
44 177 11.1116
45 177 12.0481
46 177 12.9802
47 177 13.8768
48 177 14.7735
49 177 15.6609
50 177 16.5559
51 177 17.4822
52 177 18.4166
53 177 19.2868
54 177 20.0484
55 177 20.6716
56 177 21.2515
57 177 21.704
58 177 22.0226
59 177 22.2019
60 177 22.286
61 177 22.2523
62 177 22.1184
63 177 21.7135
64 177 21.0564
65 177 20.1514
66 177 18.936
67 177 17.3473
68 177 15.7126
69 177 14.0462
70 177 12.3795
71 177 10.738
72 177 9.18089
73 177 7.65159
74 177 6.25457
75 177 4.97386
76 177 3.813
77 177 2.76032
78 177 1.87698
79 177 1.1241
80 177 0.497442
81 177 0.0161742
82 177 -0.352089
83 177 -0.583831
84 177 -0.697564
85 177 -0.787626
86 177 -0.724547
87 177 -0.588479
88 177 -0.396463
89 177 -0.17197
90 177 0.140511
91 177 0.416416
92 177 0.732514
93 177 0.94411
94 177 1.11103
95 177 1.13363
96 177 0.960264
97 177 0.541843
98 177 -0.112158
99 177 -0.771491
100 177 -1.10102
101 177 -2.0049
102 177 -24.238
103 177 -24.238
104 177 -24.238
105 177 -24.238
106 177 -24.238
107 177 -24.238
108 177 -24.238
109 177 -24.238
110 177 -24.238
111 177 -24.238
112 177 -24.238
113 177 -24.238
114 177 -24.238
115 177 -24.238
116 177 -24.238
117 177 -24.238
118 177 -24.238
119 177 -24.238
0 178 -24.238
1 178 -24.238
2 178 -24.238
3 178 -24.238
4 178 -24.238
5 178 -24.238
6 178 -24.238
7 178 -24.238
8 178 -24.238
9 178 -24.238
10 178 -24.238
11 178 -24.238
12 178 -24.238
13 178 -24.238
14 178 -24.238
15 178 -24.238
16 178 -24.238
17 178 -24.238
18 178 -24.238
19 178 -24.238
20 178 -24.238
21 178 -24.238
22 178 -24.238
23 178 -24.238
24 178 -24.238
25 178 -11.2658
26 178 -6.43762
27 178 -4.07087
28 178 -2.46438
29 178 -1.17045
30 178 -0.402926
31 178 0.204471
32 178 0.927001
33 178 1.64519
34 178 2.37779
35 178 3.09585
36 178 3.83408
37 178 4.60077
38 178 5.37654
39 178 6.19137
40 178 7.056
41 178 7.97792
42 178 8.96774
43 178 9.9453
44 178 10.9826
45 178 11.9866
46 178 12.9716
47 178 13.981
48 178 14.9515
49 178 15.9697
50 178 16.9366
51 178 17.968
52 178 18.9448
53 178 19.902
54 178 20.7596
55 178 21.4779
56 178 22.0924
57 178 22.5554
58 178 22.8778
59 178 23.1013
60 178 23.2014
61 178 23.2641
62 178 23.2098
63 178 22.9172
64 178 22.3886
65 178 21.4553
66 178 20.0958
67 178 18.3697
68 178 16.5408
69 178 14.6991
70 178 12.8482
71 178 10.9559
72 178 9.21618
73 178 7.50037
74 178 5.90075
75 178 4.44842
76 178 3.14516
77 178 1.98123
78 178 0.964741
79 178 0.141042
80 178 -0.529324
81 178 -1.08706
82 178 -1.46333
83 178 -1.71375
84 178 -1.85384
85 178 -1.85781
86 178 -1.80111
87 178 -1.66517
88 178 -1.39849
89 178 -1.08899
90 178 -0.718904
91 178 -0.33237
92 178 0.0292174
93 178 0.318232
94 178 0.514275
95 178 0.528957
96 178 0.279701
97 178 -0.323872
98 178 -1.28707
99 178 -2.404
100 178 -3.34343
101 178 -4.7078
102 178 -24.238
103 178 -24.238
104 178 -24.238
105 178 -24.238
106 178 -24.238
107 178 -24.238
108 178 -24.238
109 178 -24.238
110 178 -24.238
111 178 -24.238
112 178 -24.238
113 178 -24.238
114 178 -24.238
115 178 -24.238
116 178 -24.238
117 178 -24.238
118 178 -24.238
119 178 -24.238
0 179 -24.238
1 179 -24.238
2 179 -24.238
3 179 -24.238
4 179 -24.238
5 179 -24.238
6 179 -24.238
7 179 -24.238
8 179 -24.238
9 179 -24.238
10 179 -24.238
11 179 -24.238
12 179 -24.238
13 179 -24.238
14 179 -24.238
15 179 -24.238
16 179 -24.238
17 179 -24.238
18 179 -24.238
19 179 -24.238
20 179 -24.238
21 179 -24.238
22 179 -24.238
23 179 -24.238
24 179 -24.238
25 179 -24.238
26 179 -11.4015
27 179 -6.16546
28 179 -3.78983
29 179 -2.36829
30 179 -1.10125
31 179 -0.387846
32 179 0.333859
33 179 1.09616
34 179 1.87443
35 179 2.63464
36 179 3.39513
37 179 4.19087
38 179 4.99219
39 179 5.79527
40 179 6.60883
41 179 7.55897
42 179 8.60344
43 179 9.6597
44 179 10.7888
45 179 11.9078
46 179 12.9978
47 179 14.116
48 179 15.1868
49 179 16.3063
50 179 17.3654
51 179 18.4557
52 179 19.5099
53 179 20.564
54 179 21.5055
55 179 22.2648
56 179 22.8364
57 179 23.3265
58 179 23.6701
59 179 23.9265
60 179 24.081
61 179 24.1904
62 179 24.2099
63 179 24.068
64 179 23.6819
65 179 22.9385
66 179 21.5566
67 179 19.606
68 179 17.553
69 179 15.4646
70 179 13.3823
71 179 11.2867
72 179 9.25228
73 179 7.30799
74 179 5.48595
75 179 3.86666
76 179 2.37978
77 179 1.08868
78 179 -0.0547543
79 179 -0.965492
80 179 -1.69283
81 179 -2.2804
82 179 -2.70642
83 179 -2.94481
84 179 -3.09375
85 179 -3.13342
86 179 -3.07261
87 179 -2.90961
88 179 -2.63066
89 179 -2.24997
90 179 -1.74698
91 179 -1.20842
92 179 -0.740127
93 179 -0.437013
94 179 -0.224089
95 179 -0.282708
96 179 -0.703846
97 179 -1.42618
98 179 -2.68299
99 179 -5.67577
100 179 -24.238
101 179 -24.238
102 179 -24.238
103 179 -24.238
104 179 -24.238
105 179 -24.238
106 179 -24.238
107 179 -24.238
108 179 -24.238
109 179 -24.238
110 179 -24.238
111 179 -24.238
112 179 -24.238
113 179 -24.238
114 179 -24.238
115 179 -24.238
116 179 -24.238
117 179 -24.238
118 179 -24.238
119 179 -24.238
0 180 -24.238
1 180 -24.238
2 180 -24.238
3 180 -24.238
4 180 -24.238
5 180 -24.238
6 180 -24.238
7 180 -24.238
8 180 -24.238
9 180 -24.238
10 180 -24.238
11 180 -24.238
12 180 -24.238
13 180 -24.238
14 180 -24.238
15 180 -24.238
16 180 -24.238
17 180 -24.238
18 180 -24.238
19 180 -24.238
20 180 -24.238
21 180 -24.238
22 180 -24.238
23 180 -24.238
24 180 -24.238
25 180 -24.238
26 180 -24.238
27 180 -9.87476
28 180 -5.6195
29 180 -3.71416
30 180 -2.33462
31 180 -1.18093
32 180 -0.292499
33 180 0.463087
34 180 1.27386
35 180 2.10293
36 180 2.88104
37 180 3.71114
38 180 4.50302
39 180 5.3295
40 180 6.11199
41 180 7.06085
42 180 8.20877
43 180 9.36984
44 180 10.5667
45 180 11.7884
46 180 13.0421
47 180 14.2472
48 180 15.4741
49 180 16.673
50 180 17.8209
51 180 18.9824
52 180 20.1114
53 180 21.2275
54 180 22.1597
55 180 22.9261
56 180 23.5075
57 180 23.9874
58 180 24.3851
59 180 24.6591
60 180 24.8828
61 180 25.0415
62 180 25.1589
63 180 25.1306
64 180 24.9239
65 180 24.3614
66 180 23.2787
67 180 21.1529
68 180 18.8259
69 180 16.4417
70 180 14.0498
71 180 11.6081
72 180 9.25631
73 180 7.04531
74 180 4.98057
75 180 3.10979
76 180 1.44146
77 180 0.0170543
78 180 -1.2277
79 180 -2.24596
80 180 -3.03721
81 180 -3.65472
82 180 -4.06448
83 180 -4.32099
84 180 -4.49426
85 180 -4.54667
86 180 -4.49242
87 180 -4.38053
88 180 -4.05195
89 180 -3.58093
90 180 -2.90205
91 180 -2.08544
92 180 -1.60059
93 180 -1.33393
94 180 -1.28699
95 180 -1.43466
96 180 -2.20657
97 180 -2.98114
98 180 -4.14338
99 180 -6.72979
100 180 -24.238
101 180 -24.238
102 180 -24.238
103 180 -24.238
104 180 -24.238
105 180 -24.238
106 180 -24.238
107 180 -24.238
108 180 -24.238
109 180 -24.238
110 180 -24.238
111 180 -24.238
112 180 -24.238
113 180 -24.238
114 180 -24.238
115 180 -24.238
116 180 -24.238
117 180 -24.238
118 180 -24.238
119 180 -24.238
0 181 -24.238
1 181 -24.238
2 181 -24.238
3 181 -24.238
4 181 -24.238
5 181 -24.238
6 181 -24.238
7 181 -24.238
8 181 -24.238
9 181 -24.238
10 181 -24.238
11 181 -24.238
12 181 -24.238
13 181 -24.238
14 181 -24.238
15 181 -24.238
16 181 -24.238
17 181 -24.238
18 181 -24.238
19 181 -24.238
20 181 -24.238
21 181 -24.238
22 181 -24.238
23 181 -24.238
24 181 -24.238
25 181 -24.238
26 181 -24.238
27 181 -24.238
28 181 -24.238
29 181 -6.11457
30 181 -3.91547
31 181 -2.54204
32 181 -1.14991
33 181 -0.195458
34 181 0.600634
35 181 1.47709
36 181 2.2985
37 181 3.13005
38 181 3.95559
39 181 4.78596
40 181 5.58566
41 181 6.53827
42 181 7.73351
43 181 9.00703
44 181 10.3733
45 181 11.745
46 181 13.115
47 181 14.4296
48 181 15.7665
49 181 17.0636
50 181 18.3251
51 181 19.5526
52 181 20.7646
53 181 21.8707
54 181 22.7556
55 181 23.5296
56 181 24.1142
57 181 24.5795
58 181 24.9644
59 181 25.2779
60 181 25.5713
61 181 25.81
62 181 26.0265
63 181 26.1372
64 181 26.1264
65 181 25.8179
66 181 24.9935
67 181 23.0776
68 181 20.4548
69 181 17.6726
70 181 14.8145
71 181 11.9538
72 181 9.17962
73 181 6.62999
74 181 4.3181
75 181 2.21687
76 181 0.311123
77 181 -1.33487
78 181 -2.74863
79 181 -3.78297
80 181 -4.57407
81 181 -5.16236
82 181 -5.55483
83 181 -5.82
84 181 -6.01578
85 181 -6.1671
86 181 -6.18497
87 181 -6.09285
88 181 -5.75623
89 181 -5.2076
90 181 -4.19492
91 181 -2.99809
92 181 -2.58012
93 181 -2.61079
94 181 -3.0949
95 181 -3.40086
96 181 -6.19773
97 181 -9.66192
98 181 -24.238
99 181 -24.238
100 181 -24.238
101 181 -24.238
102 181 -24.238
103 181 -24.238
104 181 -24.238
105 181 -24.238
106 181 -24.238
107 181 -24.238
108 181 -24.238
109 181 -24.238
110 181 -24.238
111 181 -24.238
112 181 -24.238
113 181 -24.238
114 181 -24.238
115 181 -24.238
116 181 -24.238
117 181 -24.238
118 181 -24.238
119 181 -24.238
0 182 -24.238
1 182 -24.238
2 182 -24.238
3 182 -24.238
4 182 -24.238
5 182 -24.238
6 182 -24.238
7 182 -24.238
8 182 -24.238
9 182 -24.238
10 182 -24.238
11 182 -24.238
12 182 -24.238
13 182 -24.238
14 182 -24.238
15 182 -24.238
16 182 -24.238
17 182 -24.238
18 182 -24.238
19 182 -24.238
20 182 -24.238
21 182 -24.238
22 182 -24.238
23 182 -24.238
24 182 -24.238
25 182 -24.238
26 182 -24.238
27 182 -24.238
28 182 -24.238
29 182 -24.238
30 182 -6.32573
31 182 -4.25644
32 182 -2.58351
33 182 -1.09107
34 182 -0.0867601
35 182 0.725429
36 182 1.63131
37 182 2.51235
38 182 3.32942
39 182 4.17595
40 182 4.97535
41 182 5.88986
42 182 7.13746
43 182 8.55268
44 182 10.0719
45 182 11.6414
46 182 13.1871
47 182 14.6181
48 182 16.0534
49 182 17.4346
50 182 18.8185
51 182 20.1033
52 182 21.3131
53 182 22.3636
54 182 23.2668
55 182 24.0084
56 182 24.5791
57 182 25.0492
58 182 25.4443
59 182 25.8044
60 182 26.1064
61 182 26.4304
62 182 26.7717
63 182 27.0525
64 182 27.2796
65 182 27.2438
66 182 26.7683
67 182 25.2383
68 182 22.2482
69 182 18.9928
70 182 15.5473
71 182 12.0464
72 182 8.8653
73 182 5.98793
74 182 3.39417
75 182 0.947827
76 182 -1.185
77 182 -2.95219
78 182 -4.52015
79 182 -5.62216
80 182 -6.38851
81 182 -6.94478
82 182 -7.31079
83 182 -7.64238
84 182 -7.85534
85 182 -8.04209
86 182 -8.19058
87 182 -8.16366
88 182 -7.93685
89 182 -7.70664
90 182 -6.56203
91 182 -3.9361
92 182 -4.44267
93 182 -5.19398
94 182 -9.23081
95 182 -13.8173
96 182 -24.238
97 182 -24.238
98 182 -24.238
99 182 -24.238
100 182 -24.238
101 182 -24.238
102 182 -24.238
103 182 -24.238
104 182 -24.238
105 182 -24.238
106 182 -24.238
107 182 -24.238
108 182 -24.238
109 182 -24.238
110 182 -24.238
111 182 -24.238
112 182 -24.238
113 182 -24.238
114 182 -24.238
115 182 -24.238
116 182 -24.238
117 182 -24.238
118 182 -24.238
119 182 -24.238
0 183 -24.238
1 183 -24.238
2 183 -24.238
3 183 -24.238
4 183 -24.238
5 183 -24.238
6 183 -24.238
7 183 -24.238
8 183 -24.238
9 183 -24.238
10 183 -24.238
11 183 -24.238
12 183 -24.238
13 183 -24.238
14 183 -24.238
15 183 -24.238
16 183 -24.238
17 183 -24.238
18 183 -24.238
19 183 -24.238
20 183 -24.238
21 183 -24.238
22 183 -24.238
23 183 -24.238
24 183 -24.238
25 183 -24.238
26 183 -24.238
27 183 -24.238
28 183 -24.238
29 183 -24.238
30 183 -24.238
31 183 -7.43371
32 183 -3.93748
33 183 -2.33058
34 183 -0.997451
35 183 -0.0260982
36 183 0.870329
37 183 1.76764
38 183 2.62632
39 183 3.50348
40 183 4.33989
41 183 5.22261
42 183 6.48865
43 183 8.05901
44 183 9.75562
45 183 11.5361
46 183 13.2308
47 183 14.8645
48 183 16.3823
49 183 17.8562
50 183 19.2561
51 183 20.5606
52 183 21.7757
53 183 22.7773
54 183 23.6333
55 183 24.3276
56 183 24.8915
57 183 25.3814
58 183 25.7518
59 183 26.1552
60 183 26.4581
61 183 26.8453
62 183 27.342
63 183 27.8648
64 183 28.3627
65 183 28.6706
66 183 28.6452
67 183 27.7594
68 183 24.7317
69 183 20.6486
70 183 16.238
71 183 12.1122
72 183 8.34115
73 183 5.00656
74 183 2.09881
75 183 -0.548729
76 183 -2.94124
77 183 -5.03387
78 183 -6.60315
79 183 -7.72627
80 183 -8.43872
81 183 -8.94698
82 183 -9.34257
83 183 -9.68357
84 183 -9.92548
85 183 -10.0925
86 183 -10.5299
87 183 -10.7012
88 183 -10.6109
89 183 -11.7867
90 183 -11.5222
91 183 -3.86268
92 183 -10.5681
93 183 -16.5616
94 183 -24.238
95 183 -24.238
96 183 -24.238
97 183 -24.238
98 183 -24.238
99 183 -24.238
100 183 -24.238
101 183 -24.238
102 183 -24.238
103 183 -24.238
104 183 -24.238
105 183 -24.238
106 183 -24.238
107 183 -24.238
108 183 -24.238
109 183 -24.238
110 183 -24.238
111 183 -24.238
112 183 -24.238
113 183 -24.238
114 183 -24.238
115 183 -24.238
116 183 -24.238
117 183 -24.238
118 183 -24.238
119 183 -24.238
0 184 -24.238
1 184 -24.238
2 184 -24.238
3 184 -24.238
4 184 -24.238
5 184 -24.238
6 184 -24.238
7 184 -24.238
8 184 -24.238
9 184 -24.238
10 184 -24.238
11 184 -24.238
12 184 -24.238
13 184 -24.238
14 184 -24.238
15 184 -24.238
16 184 -24.238
17 184 -24.238
18 184 -24.238
19 184 -24.238
20 184 -24.238
21 184 -24.238
22 184 -24.238
23 184 -24.238
24 184 -24.238
25 184 -24.238
26 184 -24.238
27 184 -24.238
28 184 -24.238
29 184 -24.238
30 184 -24.238
31 184 -14.294
32 184 -5.79169
33 184 -3.5599
34 184 -2.22157
35 184 -0.925668
36 184 0.0770992
37 184 0.983321
38 184 1.89962
39 184 2.82692
40 184 3.66075
41 184 4.56862
42 184 5.78819
43 184 7.45628
44 184 9.45481
45 184 11.4429
46 184 13.3157
47 184 15.0782
48 184 16.6874
49 184 18.1844
50 184 19.6801
51 184 20.9838
52 184 22.124
53 184 23.0844
54 184 23.8765
55 184 24.5331
56 184 25.0443
57 184 25.4971
58 184 25.8812
59 184 26.2543
60 184 26.596
61 184 27.0527
62 184 27.685
63 184 28.4458
64 184 26.8958
65 184 26.8958
66 184 26.8958
67 184 26.8958
68 184 28.2288
69 184 22.7027
70 184 16.9888
71 184 11.7245
72 184 7.37426
73 184 3.65726
74 184 0.556968
75 184 -2.36969
76 184 -5.045
77 184 -7.43039
78 184 -9.11287
79 184 -10.2404
80 184 -10.9566
81 184 -11.3225
82 184 -11.4846
83 184 -11.8772
84 184 -12.124
85 184 -12.2413
86 184 -13.2948
87 184 -14.1638
88 184 -13.1267
89 184 -19.6394
90 184 -24.238
91 184 -24.238
92 184 -24.238
93 184 -24.238
94 184 -24.238
95 184 -24.238
96 184 -24.238
97 184 -24.238
98 184 -24.238
99 184 -24.238
100 184 -24.238
101 184 -24.238
102 184 -24.238
103 184 -24.238
104 184 -24.238
105 184 -24.238
106 184 -24.238
107 184 -24.238
108 184 -24.238
109 184 -24.238
110 184 -24.238
111 184 -24.238
112 184 -24.238
113 184 -24.238
114 184 -24.238
115 184 -24.238
116 184 -24.238
117 184 -24.238
118 184 -24.238
119 184 -24.238
0 185 -24.238
1 185 -24.238
2 185 -24.238
3 185 -24.238
4 185 -24.238
5 185 -24.238
6 185 -24.238
7 185 -24.238
8 185 -24.238
9 185 -24.238
10 185 -24.238
11 185 -24.238
12 185 -24.238
13 185 -24.238
14 185 -24.238
15 185 -24.238
16 185 -24.238
17 185 -24.238
18 185 -24.238
19 185 -24.238
20 185 -24.238
21 185 -24.238
22 185 -24.238
23 185 -24.238
24 185 -24.238
25 185 -24.238
26 185 -24.238
27 185 -24.238
28 185 -24.238
29 185 -24.238
30 185 -24.238
31 185 -24.238
32 185 -24.238
33 185 -6.47585
34 185 -3.77481
35 185 -2.22627
36 185 -0.898227
37 185 0.158447
38 185 1.08102
39 185 2.04491
40 185 2.96257
41 185 3.85801
42 185 5.15229
43 185 6.89495
44 185 9.18825
45 185 11.3916
46 185 13.3387
47 185 15.2272
48 185 16.934
49 185 18.5256
50 185 20.0659
51 185 21.3395
52 185 22.3663
53 185 23.2608
54 185 24
55 185 24.6091
56 185 25.0865
57 185 25.477
58 185 25.8203
59 185 26.134
60 185 26.4604
61 185 26.9885
62 185 27.743
63 185 28.7488
64 185 26.8958
65 185 26.8958
66 185 26.8958
67 185 26.8958
68 185 26.8958
69 185 24.9674
70 185 16.6431
71 185 10.2135
72 185 5.42635
73 185 1.77001
74 185 -1.28729
75 185 -4.26342
76 185 -7.328
77 185 -10.388
78 185 -12.3275
79 185 -13.434
80 185 -13.9527
81 185 -14.0687
82 185 -13.8434
83 185 -14.6029
84 185 -15.1348
85 185 -14.1963
86 185 -18.0318
87 185 -23.0264
88 185 -24.238
89 185 -24.238
90 185 -24.238
91 185 -24.238
92 185 -24.238
93 185 -24.238
94 185 -24.238
95 185 -24.238
96 185 -24.238
97 185 -24.238
98 185 -24.238
99 185 -24.238
100 185 -24.238
101 185 -24.238
102 185 -24.238
103 185 -24.238
104 185 -24.238
105 185 -24.238
106 185 -24.238
107 185 -24.238
108 185 -24.238
109 185 -24.238
110 185 -24.238
111 185 -24.238
112 185 -24.238
113 185 -24.238
114 185 -24.238
115 185 -24.238
116 185 -24.238
117 185 -24.238
118 185 -24.238
119 185 -24.238
0 186 -24.238
1 186 -24.238
2 186 -24.238
3 186 -24.238
4 186 -24.238
5 186 -24.238
6 186 -24.238
7 186 -24.238
8 186 -24.238
9 186 -24.238
10 186 -24.238
11 186 -24.238
12 186 -24.238
13 186 -24.238
14 186 -24.238
15 186 -24.238
16 186 -24.238
17 186 -24.238
18 186 -24.238
19 186 -24.238
20 186 -24.238
21 186 -24.238
22 186 -24.238
23 186 -24.238
24 186 -24.238
25 186 -24.238
26 186 -24.238
27 186 -24.238
28 186 -24.238
29 186 -24.238
30 186 -24.238
31 186 -24.238
32 186 -24.238
33 186 -24.238
34 186 -6.8676
35 186 -3.77809
36 186 -2.08019
37 186 -0.694116
38 186 0.295643
39 186 1.28449
40 186 2.25009
41 186 3.19273
42 186 4.55173
43 186 6.47807
44 186 8.90606
45 186 11.2781
46 186 13.377
47 186 15.322
48 186 17.1267
49 186 18.8166
50 186 20.3971
51 186 21.5864
52 186 22.5242
53 186 23.324
54 186 24.0245
55 186 24.5398
56 186 24.935
57 186 25.2341
58 186 25.4558
59 186 25.678
60 186 25.9692
61 186 26.5085
62 186 27.4027
63 186 28.6391
64 186 26.8958
65 186 26.8958
66 186 26.8958
67 186 26.8958
68 186 26.8958
69 186 27.4346
70 186 14.2243
71 186 7.43388
72 186 2.9349
73 186 -0.204445
74 186 -2.88983
75 186 -5.72041
76 186 -9.62909
77 186 -14.4965
78 186 -16.6965
79 186 -17.2704
80 186 -17.7166
81 186 -17.5855
82 186 -15.4417
83 186 -18.8487
84 186 -23.4552
85 186 -24.238
86 186 -24.238
87 186 -24.238
88 186 -24.238
89 186 -24.238
90 186 -24.238
91 186 -24.238
92 186 -24.238
93 186 -24.238
94 186 -24.238
95 186 -24.238
96 186 -24.238
97 186 -24.238
98 186 -24.238
99 186 -24.238
100 186 -24.238
101 186 -24.238
102 186 -24.238
103 186 -24.238
104 186 -24.238
105 186 -24.238
106 186 -24.238
107 186 -24.238
108 186 -24.238
109 186 -24.238
110 186 -24.238
111 186 -24.238
112 186 -24.238
113 186 -24.238
114 186 -24.238
115 186 -24.238
116 186 -24.238
117 186 -24.238
118 186 -24.238
119 186 -24.238
0 187 -24.238
1 187 -24.238
2 187 -24.238
3 187 -24.238
4 187 -24.238
5 187 -24.238
6 187 -24.238
7 187 -24.238
8 187 -24.238
9 187 -24.238
10 187 -24.238
11 187 -24.238
12 187 -24.238
13 187 -24.238
14 187 -24.238
15 187 -24.238
16 187 -24.238
17 187 -24.238
18 187 -24.238
19 187 -24.238
20 187 -24.238
21 187 -24.238
22 187 -24.238
23 187 -24.238
24 187 -24.238
25 187 -24.238
26 187 -24.238
27 187 -24.238
28 187 -24.238
29 187 -24.238
30 187 -24.238
31 187 -24.238
32 187 -24.238
33 187 -24.238
34 187 -24.238
35 187 -8.0504
36 187 -3.80919
37 187 -1.67139
38 187 -0.421398
39 187 0.46529
40 187 1.51036
41 187 2.50726
42 187 3.98674
43 187 6.08666
44 187 8.55723
45 187 11.1041
46 187 13.3892
47 187 15.4697
48 187 17.2928
49 187 19.0786
50 187 20.6479
51 187 21.7283
52 187 22.6411
53 187 23.3377
54 187 23.9275
55 187 24.3431
56 187 24.6005
57 187 24.7465
58 187 24.8088
59 187 24.8784
60 187 25.0851
61 187 25.5832
62 187 26.5225
63 187 27.9316
64 187 26.8958
65 187 26.8958
66 187 26.8958
67 187 26.8958
68 187 26.8958
69 187 24.6853
70 187 9.96083
71 187 3.65542
72 187 -0.0920642
73 187 -2.40718
74 187 -3.84355
75 187 -6.14595
76 187 -11.051
77 187 -21.6004
78 187 -23.0608
79 187 -22.0598
80 187 -23.9863
81 187 -24.238
82 187 -24.238
83 187 -24.238
84 187 -24.238
85 187 -24.238
86 187 -24.238
87 187 -24.238
88 187 -24.238
89 187 -24.238
90 187 -24.238
91 187 -24.238
92 187 -24.238
93 187 -24.238
94 187 -24.238
95 187 -24.238
96 187 -24.238
97 187 -24.238
98 187 -24.238
99 187 -24.238
100 187 -24.238
101 187 -24.238
102 187 -24.238
103 187 -24.238
104 187 -24.238
105 187 -24.238
106 187 -24.238
107 187 -24.238
108 187 -24.238
109 187 -24.238
110 187 -24.238
111 187 -24.238
112 187 -24.238
113 187 -24.238
114 187 -24.238
115 187 -24.238
116 187 -24.238
117 187 -24.238
118 187 -24.238
119 187 -24.238
0 188 -24.238
1 188 -24.238
2 188 -24.238
3 188 -24.238
4 188 -24.238
5 188 -24.238
6 188 -24.238
7 188 -24.238
8 188 -24.238
9 188 -24.238
10 188 -24.238
11 188 -24.238
12 188 -24.238
13 188 -24.238
14 188 -24.238
15 188 -24.238
16 188 -24.238
17 188 -24.238
18 188 -24.238
19 188 -24.238
20 188 -24.238
21 188 -24.238
22 188 -24.238
23 188 -24.238
24 188 -24.238
25 188 -24.238
26 188 -24.238
27 188 -24.238
28 188 -24.238
29 188 -24.238
30 188 -24.238
31 188 -24.238
32 188 -24.238
33 188 -24.238
34 188 -24.238
35 188 -24.238
36 188 -9.57366
37 188 -3.49397
38 188 -1.51342
39 188 -0.362005
40 188 0.605192
41 188 1.76833
42 188 3.47812
43 188 5.64056
44 188 7.99409
45 188 10.8256
46 188 13.2661
47 188 15.5083
48 188 17.5575
49 188 19.3816
50 188 20.786
51 188 21.8242
52 188 22.643
53 188 23.2708
54 188 23.7328
55 188 23.9867
56 188 24.0322
57 188 23.9879
58 188 23.9057
59 188 23.781
60 188 23.7359
61 188 24.0993
62 188 24.9254
63 188 26.4285
64 188 26.8958
65 188 26.8958
66 188 26.8958
67 188 26.8958
68 188 26.8958
69 188 19.1716
70 188 6.69825
71 188 -0.954379
72 188 -4.09836
73 188 -4.91203
74 188 -4.01688
75 188 -4.00498
76 188 -7.97789
77 188 -24.238
78 188 -24.238
79 188 -24.238
80 188 -24.238
81 188 -24.238
82 188 -24.238
83 188 -24.238
84 188 -24.238
85 188 -24.238
86 188 -24.238
87 188 -24.238
88 188 -24.238
89 188 -24.238
90 188 -24.238
91 188 -24.238
92 188 -24.238
93 188 -24.238
94 188 -24.238
95 188 -24.238
96 188 -24.238
97 188 -24.238
98 188 -24.238
99 188 -24.238
100 188 -24.238
101 188 -24.238
102 188 -24.238
103 188 -24.238
104 188 -24.238
105 188 -24.238
106 188 -24.238
107 188 -24.238
108 188 -24.238
109 188 -24.238
110 188 -24.238
111 188 -24.238
112 188 -24.238
113 188 -24.238
114 188 -24.238
115 188 -24.238
116 188 -24.238
117 188 -24.238
118 188 -24.238
119 188 -24.238
0 189 -24.238
1 189 -24.238
2 189 -24.238
3 189 -24.238
4 189 -24.238
5 189 -24.238
6 189 -24.238
7 189 -24.238
8 189 -24.238
9 189 -24.238
10 189 -24.238
11 189 -24.238
12 189 -24.238
13 189 -24.238
14 189 -24.238
15 189 -24.238
16 189 -24.238
17 189 -24.238
18 189 -24.238
19 189 -24.238
20 189 -24.238
21 189 -24.238
22 189 -24.238
23 189 -24.238
24 189 -24.238
25 189 -24.238
26 189 -24.238
27 189 -24.238
28 189 -24.238
29 189 -24.238
30 189 -24.238
31 189 -24.238
32 189 -24.238
33 189 -24.238
34 189 -24.238
35 189 -24.238
36 189 -24.238
37 189 -24.238
38 189 -4.61497
39 189 -1.54934
40 189 -0.331225
41 189 0.943428
42 189 2.92538
43 189 5.15646
44 189 7.53897
45 189 10.502
46 189 13.1738
47 189 15.5398
48 189 17.7392
49 189 19.5479
50 189 20.9141
51 189 21.8544
52 189 22.6207
53 189 23.1549
54 189 23.3787
55 189 23.3484
56 189 23.1618
57 189 22.8837
58 189 22.5347
59 189 22.2535
60 189 22.0437
61 189 22.019
62 189 22.513
63 189 23.8706
64 189 26.4896
65 189 26.8958
66 189 26.8958
67 189 26.8958
68 189 26.8958
69 189 15.0835
70 189 1.48819
71 189 -7.36764
72 189 -8.65853
73 189 -8.74535
74 189 -4.90532
75 189 -2.56329
76 189 7.26916
77 189 26.8958
78 189 -24.238
79 189 -24.238
80 189 -24.238
81 189 -24.238
82 189 -24.238
83 189 -24.238
84 189 -24.238
85 189 -24.238
86 189 -24.238
87 189 -24.238
88 189 -24.238
89 189 -24.238
90 189 -24.238
91 189 -24.238
92 189 -24.238
93 189 -24.238
94 189 -24.238
95 189 -24.238
96 189 -24.238
97 189 -24.238
98 189 -24.238
99 189 -24.238
100 189 -24.238
101 189 -24.238
102 189 -24.238
103 189 -24.238
104 189 -24.238
105 189 -24.238
106 189 -24.238
107 189 -24.238
108 189 -24.238
109 189 -24.238
110 189 -24.238
111 189 -24.238
112 189 -24.238
113 189 -24.238
114 189 -24.238
115 189 -24.238
116 189 -24.238
117 189 -24.238
118 189 -24.238
119 189 -24.238
0 190 -24.238
1 190 -24.238
2 190 -24.238
3 190 -24.238
4 190 -24.238
5 190 -24.238
6 190 -24.238
