ply
format ascii 1.0
comment Created by Open3D
element vertex 3011
property double x
property double y
property double z
end_header
77 147 -17.3265
78 147 -17.7397
79 147 -18.2129
80 147 -18.7391
81 147 -19.2462
82 147 -19.7214
83 147 -20.1721
84 147 -20.5948
85 147 -21.0415
86 147 -21.4919
87 147 -21.9703
88 147 -22.4925
89 147 -23.073
90 147 -24.1358
91 147 -25.6082
92 147 -29.3403
93 147 -30.415
94 147 -31.1607
95 147 -31.8851
96 147 -32.6217
97 147 -33.3366
98 147 -34.0005
99 147 -34.642
100 147 -35.2197
101 147 -35.7614
102 147 -36.3034
103 147 -36.8528
104 147 -37.4779
105 147 -38.0958
106 147 -39.0652
107 147 -39.7141
108 147 -126.767
109 147 -126.767
110 147 -126.767
111 147 -126.767
112 147 -126.767
113 147 -126.767
114 147 -126.767
115 147 -126.767
116 147 -126.767
117 147 -126.767
118 147 -126.767
119 147 -126.767
0 148 -126.767
1 148 -126.767
2 148 -126.767
3 148 -126.767
4 148 -126.767
5 148 -126.767
6 148 -126.767
7 148 -126.767
8 148 -126.767
9 148 -38.3667
10 148 -32.8931
11 148 -28.9138
12 148 -26.1002
13 148 -23.7739
14 148 -21.9105
15 148 -20.2712
16 148 -18.8682
17 148 -17.8319
18 148 -17.0954
19 148 -16.4937
20 148 -16.0056
21 148 -15.5919
22 148 -15.2186
23 148 -14.9064
24 148 -14.6471
25 148 -14.4377
26 148 -14.155
27 148 -13.7666
28 148 -13.137
29 148 -12.2802
30 148 -11.4506
31 148 -10.6488
32 148 -9.87859
33 148 -9.15953
34 148 -8.46504
35 148 -7.81086
36 148 -7.21514
37 148 -6.66377
38 148 -6.15722
39 148 -5.68725
40 148 -5.28303
41 148 -4.92349
42 148 -4.61101
43 148 -4.30598
44 148 -4.10237
45 148 -3.93073
46 148 -3.8099
47 148 -3.77002
48 148 -3.79247
49 148 -3.86882
50 148 -3.99365
51 148 -4.16707
52 148 -4.38027
53 148 -4.64766
54 148 -4.96388
55 148 -5.32217
56 148 -5.71595
57 148 -6.1429
58 148 -6.62242
59 148 -7.13879
60 148 -7.70111
61 148 -8.31131
62 148 -8.9138
63 148 -9.53464
64 148 -10.1675
65 148 -10.79
66 148 -11.4087
67 148 -12.0096
68 148 -12.6144
69 148 -13.197
70 148 -13.7844
71 148 -14.3413
72 148 -14.8967
73 148 -15.4417
74 148 -15.9758
75 148 -16.5065
76 148 -17.021
77 148 -17.5077
78 148 -17.9729
79 148 -18.4181
80 148 -18.945
81 148 -19.4524
82 148 -19.9227
83 148 -20.3765
84 148 -20.8319
85 148 -21.2835
86 148 -21.7201
87 148 -22.1942
88 148 -22.6986
89 148 -23.2307
90 148 -24.1805
91 148 -25.3913
92 148 -30.2017
93 148 -30.9554
94 148 -31.547
95 148 -32.1637
96 148 -32.846
97 148 -33.534
98 148 -34.2277
99 148 -34.8939
100 148 -35.5391
101 148 -36.1594
102 148 -36.7967
103 148 -37.4171
104 148 -38.0881
105 148 -38.8231
106 148 -39.7642
107 148 -41.4793
108 148 -42.7829
109 148 -126.767
110 148 -126.767
111 148 -126.767
112 148 -126.767
113 148 -126.767
114 148 -126.767
115 148 -126.767
116 148 -126.767
117 148 -126.767
118 148 -126.767
119 148 -126.767
0 149 -126.767
1 149 -126.767
2 149 -126.767
3 149 -126.767
4 149 -126.767
5 149 -126.767
6 149 -126.767
7 149 -126.767
8 149 -126.767
9 149 -39.2941
10 149 -33.9191
11 149 -29.7667
12 149 -26.658
13 149 -24.1413
14 149 -22.1148
15 149 -20.3493
16 149 -18.8955
17 149 -17.8453
18 149 -17.1297
19 149 -16.5486
20 149 -16.0535
21 149 -15.6068
22 149 -15.2014
23 149 -14.8601
24 149 -14.5864
25 149 -14.3463
26 149 -13.9802
27 149 -13.494
28 149 -12.802
29 149 -11.9366
30 149 -11.1168
31 149 -10.3014
32 149 -9.54665
33 149 -8.82484
34 149 -8.13833
35 149 -7.50508
36 149 -6.90791
37 149 -6.37056
38 149 -5.87139
39 149 -5.41846
40 149 -5.01865
41 149 -4.65656
42 149 -4.34097
43 149 -4.04869
44 149 -3.83493
45 149 -3.67864
46 149 -3.57285
47 149 -3.5266
48 149 -3.54608
49 149 -3.61629
50 149 -3.7475
51 149 -3.91867
52 149 -4.13671
53 149 -4.41498
54 149 -4.72835
55 149 -5.08533
56 149 -5.47692
57 149 -5.91162
58 149 -6.40085
59 149 -6.89881
60 149 -7.45235
61 149 -8.03576
62 149 -8.65249
63 149 -9.27751
64 149 -9.92361
65 149 -10.5553
66 149 -11.2005
67 149 -11.8348
68 149 -12.4642
69 149 -13.0736
70 149 -13.679
71 149 -14.2804
72 149 -14.8782
73 149 -15.4441
74 149 -16.0192
75 149 -16.5756
76 149 -17.1363
77 149 -17.6508
78 149 -18.1571
79 149 -18.6293
80 149 -19.1532
81 149 -19.6744
82 149 -20.1331
83 149 -20.6018
84 149 -21.0745
85 149 -21.565
86 149 -22.0597
87 149 -22.5536
88 149 -23.0705
89 149 -23.5629
90 149 -24.3783
91 149 -25.491
92 149 -31.1692
93 149 -31.5069
94 149 -31.9303
95 149 -32.481
96 149 -33.084
97 149 -33.778
98 149 -34.4739
99 149 -35.1637
100 149 -35.8793
101 149 -36.5686
102 149 -37.2556
103 149 -37.919
104 149 -38.6134
105 149 -39.3417
106 149 -40.2768
107 149 -41.5919
108 149 -43.4996
109 149 -46.5608
110 149 -126.767
111 149 -126.767
112 149 -126.767
113 149 -126.767
114 149 -126.767
115 149 -126.767
116 149 -126.767
117 149 -126.767
118 149 -126.767
119 149 -126.767
0 150 -126.767
1 150 -126.767
2 150 -126.767
3 150 -126.767
4 150 -126.767
5 150 -126.767
6 150 -126.767
7 150 -126.767
8 150 -126.767
9 150 -40.3784
10 150 -34.8005
11 150 -30.5511
12 150 -27.1223
13 150 -24.4373
14 150 -22.2763
15 150 -20.3725
16 150 -18.916
17 150 -17.8894
18 150 -17.1789
19 150 -16.5855
20 150 -16.0591
21 150 -15.5923
22 150 -15.1725
23 150 -14.814
24 150 -14.5333
25 150 -14.2154
26 150 -13.7821
27 150 -13.1994
28 150 -12.4396
29 150 -11.5811
30 150 -10.7845
31 150 -9.99507
32 150 -9.25061
33 150 -8.52302
34 150 -7.8394
35 150 -7.18742
36 150 -6.5941
37 150 -6.06859
38 150 -5.58225
39 150 -5.10894
40 150 -4.71653
41 150 -4.3322
42 150 -4.01404
43 150 -3.74137
44 150 -3.52474
45 150 -3.37127
46 150 -3.28014
47 150 -3.22835
48 150 -3.25498
49 150 -3.32694
50 150 -3.45454
51 150 -3.62708
52 150 -3.85636
53 150 -4.13547
54 150 -4.44921
55 150 -4.80369
56 150 -5.19926
57 150 -5.64099
58 150 -6.12533
59 150 -6.64866
60 150 -7.18191
61 150 -7.77637
62 150 -8.38299
63 150 -9.00286
64 150 -9.64876
65 150 -10.3023
66 150 -10.9705
67 150 -11.6166
68 150 -12.2776
69 150 -12.9326
70 150 -13.5805
71 150 -14.2104
72 150 -14.8296
73 150 -15.436
74 150 -16.0504
75 150 -16.6411
76 150 -17.2263
77 150 -17.7862
78 150 -18.3344
79 150 -18.8666
80 150 -19.3734
81 150 -19.8894
82 150 -20.3916
83 150 -20.9273
84 150 -21.4516
85 150 -21.977
86 150 -22.5251
87 150 -23.0745
88 150 -23.6439
89 150 -24.1736
90 150 -25.0363
91 150 -26.4694
92 150 -31.7772
93 150 -31.909
94 150 -32.2574
95 150 -32.7739
96 150 -33.3699
97 150 -34.0427
98 150 -34.725
99 150 -35.4661
100 150 -36.2144
101 150 -36.957
102 150 -37.6833
103 150 -38.3691
104 150 -39.0415
105 150 -39.7384
106 150 -40.5294
107 150 -41.5458
108 150 -42.9908
109 150 -44.7573
110 150 -126.767
111 150 -126.767
112 150 -126.767
113 150 -126.767
114 150 -126.767
115 150 -126.767
116 150 -126.767
117 150 -126.767
118 150 -126.767
119 150 -126.767
0 151 -126.767
1 151 -126.767
2 151 -126.767
3 151 -126.767
4 151 -126.767
5 151 -126.767
6 151 -126.767
7 151 -126.767
8 151 -126.767
9 151 -41.0892
10 151 -35.2885
11 151 -31.1998
12 151 -27.5184
13 151 -24.6708
14 151 -22.3265
15 151 -20.3668
16 151 -18.9602
17 151 -17.962
18 151 -17.2468
19 151 -16.6172
20 151 -16.0477
21 151 -15.5553
22 151 -15.1131
23 151 -14.7519
24 151 -14.4428
25 151 -14.0579
26 151 -13.5605
27 151 -12.9016
28 151 -12.086
29 151 -11.2474
30 151 -10.4389
31 151 -9.66253
32 151 -8.89451
33 151 -8.17833
34 151 -7.50207
35 151 -6.8716
36 151 -6.27576
37 151 -5.73801
38 151 -5.25161
39 151 -4.77229
40 151 -4.38812
41 151 -3.99271
42 151 -3.66641
43 151 -3.40426
44 151 -3.1772
45 151 -3.0271
46 151 -2.94354
47 151 -2.88397
48 151 -2.91207
49 151 -2.98757
50 151 -3.11663
51 151 -3.29414
52 151 -3.5342
53 151 -3.80963
54 151 -4.12449
55 151 -4.48545
56 151 -4.89571
57 151 -5.34205
58 151 -5.82804
59 151 -6.35019
60 151 -6.90411
61 151 -7.47934
62 151 -8.07915
63 151 -8.70538
64 151 -9.36979
65 151 -10.0331
66 151 -10.7038
67 151 -11.3931
68 151 -12.0892
69 151 -12.772
70 151 -13.4458
71 151 -14.1186
72 151 -14.7648
73 151 -15.4198
74 151 -16.05
75 151 -16.6817
76 151 -17.2957
77 151 -17.9035
78 151 -18.4944
79 151 -19.0853
80 151 -19.6478
81 151 -20.2359
82 151 -20.7959
83 151 -21.3885
84 151 -21.9599
85 151 -22.5653
86 151 -23.1742
87 151 -23.8018
88 151 -24.4294
89 151 -25.1007
90 151 -26.1439
91 151 -27.7468
92 151 -30.9692
93 151 -31.9707
94 151 -32.491
95 151 -33.0705
96 151 -33.6859
97 151 -34.3453
98 151 -35.0334
99 151 -35.7647
100 151 -36.5589
101 151 -37.3274
102 151 -38.0716
103 151 -38.7734
104 151 -39.4522
105 151 -40.0819
106 151 -40.718
107 151 -41.3787
108 151 -42.0882
109 151 -43.1352
110 151 -126.767
111 151 -126.767
112 151 -126.767
113 151 -126.767
114 151 -126.767
115 151 -126.767
116 151 -126.767
117 151 -126.767
118 151 -126.767
119 151 -126.767
0 152 -126.767
1 152 -126.767
2 152 -126.767
3 152 -126.767
4 152 -126.767
5 152 -126.767
6 152 -126.767
7 152 -126.767
8 152 -126.767
9 152 -41.3949
10 152 -35.6395
11 152 -31.7316
12 152 -27.8899
13 152 -24.8623
14 152 -22.3921
15 152 -20.3852
16 152 -19.0279
17 152 -18.0333
18 152 -17.2771
19 152 -16.6152
20 152 -16.0282
21 152 -15.4767
22 152 -15.0161
23 152 -14.6444
24 152 -14.288
25 152 -13.8528
26 152 -13.2841
27 152 -12.5803
28 152 -11.7412
29 152 -10.8972
30 152 -10.0681
31 152 -9.27913
32 152 -8.52821
33 152 -7.81407
34 152 -7.14027
35 152 -6.50907
36 152 -5.92356
37 152 -5.37683
38 152 -4.87173
39 152 -4.4063
40 152 -3.98282
41 152 -3.60252
42 152 -3.27937
43 152 -3.02558
44 152 -2.80899
45 152 -2.64334
46 152 -2.5457
47 152 -2.50151
48 152 -2.51666
49 152 -2.6009
50 152 -2.73395
51 152 -2.92206
52 152 -3.16495
53 152 -3.4395
54 152 -3.76114
55 152 -4.1309
56 152 -4.53878
57 152 -4.98824
58 152 -5.47084
59 152 -5.99195
60 152 -6.54139
61 152 -7.13812
62 152 -7.76669
63 152 -8.41595
64 152 -9.08162
65 152 -9.76426
66 152 -10.4785
67 152 -11.197
68 152 -11.8958
69 152 -12.6004
70 152 -13.3198
71 152 -14.0245
72 152 -14.6899
73 152 -15.3744
74 152 -16.0586
75 152 -16.7221
76 152 -17.3877
77 152 -18.0363
78 152 -18.6916
79 152 -19.3371
80 152 -19.9605
81 152 -20.5963
82 152 -21.2191
83 152 -21.8483
84 152 -22.5003
85 152 -23.1462
86 152 -23.8265
87 152 -24.5542
88 152 -25.2973
89 152 -26.1344
90 152 -27.1598
91 152 -28.5396
92 152 -30.6606
93 152 -32.2006
94 152 -32.7235
95 152 -33.3323
96 152 -33.9811
97 152 -34.65
98 152 -35.3485
99 152 -36.0849
100 152 -36.8521
101 152 -37.6543
102 152 -38.4262
103 152 -39.1666
104 152 -39.8659
105 152 -40.4907
106 152 -41.014
107 152 -41.3943
108 152 -41.1475
109 152 -38.868
110 152 -126.767
111 152 -126.767
112 152 -126.767
113 152 -126.767
114 152 -126.767
115 152 -126.767
116 152 -126.767
117 152 -126.767
118 152 -126.767
119 152 -126.767
0 153 -126.767
1 153 -126.767
2 153 -126.767
3 153 -126.767
4 153 -126.767
5 153 -126.767
6 153 -126.767
7 153 -126.767
8 153 -126.767
9 153 -41.342
10 153 -36.016
11 153 -32.1294
12 153 -28.2113
13 153 -24.9801
14 153 -22.388
15 153 -20.4473
16 153 -19.1049
17 153 -18.0787
18 153 -17.2669
19 153 -16.5812
20 153 -15.9605
21 153 -15.3829
22 153 -14.8946
23 153 -14.496
24 153 -14.0764
25 153 -13.562
26 153 -12.9557
27 153 -12.214
28 153 -11.3553
29 153 -10.493
30 153 -9.67642
31 153 -8.88859
32 153 -8.13409
33 153 -7.42116
34 153 -6.75438
35 153 -6.12311
36 153 -5.53201
37 153 -4.96378
38 153 -4.4557
39 153 -3.99031
40 153 -3.5607
41 153 -3.19005
42 153 -2.8676
43 153 -2.60234
44 153 -2.38901
45 153 -2.20974
46 153 -2.10995
47 153 -2.06845
48 153 -2.08171
49 153 -2.16907
50 153 -2.31156
51 153 -2.49841
52 153 -2.7249
53 153 -3.00838
54 153 -3.33552
55 153 -3.70134
56 153 -4.11701
57 153 -4.57875
58 153 -5.07532
59 153 -5.61612
60 153 -6.1971
61 153 -6.80076
62 153 -7.44282
63 153 -8.09544
64 153 -8.78169
65 153 -9.50691
66 153 -10.2453
67 153 -10.971
68 153 -11.7109
69 153 -12.4569
70 153 -13.1794
71 153 -13.9301
72 153 -14.6399
73 153 -15.3577
74 153 -16.0924
75 153 -16.7827
76 153 -17.5029
77 153 -18.1767
78 153 -18.8789
79 153 -19.5654
80 153 -20.2558
81 153 -20.9324
82 153 -21.6137
83 153 -22.315
84 153 -23.015
85 153 -23.7187
86 153 -24.4531
87 153 -25.2178
88 153 -26.0662
89 153 -27.0147
90 153 -28.0497
91 153 -29.2454
92 153 -30.7171
93 153 -32.2706
94 153 -32.9708
95 153 -33.6234
96 153 -34.2841
97 153 -34.966
98 153 -35.6671
99 153 -36.4078
100 153 -37.1805
101 153 -37.9717
102 153 -38.7583
103 153 -39.5332
104 153 -40.2921
105 153 -40.9873
106 153 -41.6332
107 153 -42.2344
108 153 -42.8584
109 153 -43.6162
110 153 -50.094
111 153 -126.767
112 153 -126.767
113 153 -126.767
114 153 -126.767
115 153 -126.767
116 153 -126.767
117 153 -126.767
118 153 -126.767
119 153 -126.767
0 154 -126.767
1 154 -126.767
2 154 -126.767
3 154 -126.767
4 154 -126.767
5 154 -126.767
6 154 -126.767
7 154 -126.767
8 154 -126.767
9 154 -126.767
10 154 -36.3694
11 154 -32.5704
12 154 -28.5612
13 154 -25.1115
14 154 -22.4364
15 154 -20.535
16 154 -19.1357
17 154 -18.0442
18 154 -17.2084
19 154 -16.4913
20 154 -15.8428
21 154 -15.236
22 154 -14.7058
23 154 -14.2385
24 154 -13.7486
25 154 -13.2031
26 154 -12.5506
27 154 -11.7973
28 154 -10.9302
29 154 -10.0868
30 154 -9.27823
31 154 -8.48022
32 154 -7.73308
33 154 -7.0154
34 154 -6.34405
35 154 -5.71675
36 154 -5.11319
37 154 -4.5507
38 154 -4.02711
39 154 -3.55239
40 154 -3.11341
41 154 -2.74447
42 154 -2.41006
43 154 -2.13109
44 154 -1.90667
45 154 -1.72668
46 154 -1.61325
47 154 -1.5672
48 154 -1.58707
49 154 -1.67128
50 154 -1.81633
51 154 -1.99056
52 154 -2.21942
53 154 -2.50057
54 154 -2.8411
55 154 -3.22056
56 154 -3.64904
57 154 -4.12894
58 154 -4.64705
59 154 -5.20583
60 154 -5.79398
61 154 -6.41327
62 154 -7.0687
63 154 -7.75858
64 154 -8.48204
65 154 -9.23838
66 154 -9.98163
67 154 -10.748
68 154 -11.521
69 154 -12.2883
70 154 -13.077
71 154 -13.8372
72 154 -14.6113
73 154 -15.3732
74 154 -16.1264
75 154 -16.8673
76 154 -17.6188
77 154 -18.3388
78 154 -19.0756
79 154 -19.8079
80 154 -20.5346
81 154 -21.2825
82 154 -22.0171
83 154 -22.758
84 154 -23.5079
85 154 -24.2554
86 154 -25.0219
87 154 -25.856
88 154 -26.735
89 154 -27.6872
90 154 -28.7327
91 154 -29.8719
92 154 -31.05
93 154 -32.2879
94 154 -33.19
95 154 -33.906
96 154 -34.6128
97 154 -35.2947
98 154 -36.0119
99 154 -36.7435
100 154 -37.521
101 154 -38.301
102 154 -39.092
103 154 -39.8942
104 154 -40.7208
105 154 -41.5248
106 154 -42.3541
107 154 -43.365
108 154 -45.0177
109 154 -47.6145
110 154 -54.0923
111 154 -126.767
112 154 -126.767
113 154 -126.767
114 154 -126.767
115 154 -126.767
116 154 -126.767
117 154 -126.767
118 154 -126.767
119 154 -126.767
0 155 -126.767
1 155 -126.767
2 155 -126.767
3 155 -126.767
4 155 -126.767
5 155 -126.767
6 155 -126.767
7 155 -126.767
8 155 -126.767
9 155 -126.767
10 155 -37.0656
11 155 -32.9114
12 155 -28.8521
13 155 -25.1464
14 155 -22.4571
15 155 -20.5408
16 155 -19.123
17 155 -17.9788
18 155 -17.0967
19 155 -16.3468
20 155 -15.6693
21 155 -15.0387
22 155 -14.4634
23 155 -13.9325
24 155 -13.4053
25 155 -12.8183
26 155 -12.1644
27 155 -11.3977
28 155 -10.5016
29 155 -9.64862
30 155 -8.81311
31 155 -8.04825
32 155 -7.2954
33 155 -6.59412
34 155 -5.91866
35 155 -5.27643
36 155 -4.67498
37 155 -4.08617
38 155 -3.57759
39 155 -3.07758
40 155 -2.64154
41 155 -2.23859
42 155 -1.89884
43 155 -1.60299
44 155 -1.36778
45 155 -1.18491
46 155 -1.06893
47 155 -1.00204
48 155 -1.02338
49 155 -1.10515
50 155 -1.24217
51 155 -1.41238
52 155 -1.65862
53 155 -1.95716
54 155 -2.30916
55 155 -2.69918
56 155 -3.13571
57 155 -3.62492
58 155 -4.15985
59 155 -4.73507
60 155 -5.35441
61 155 -5.99735
62 155 -6.67442
63 155 -7.40467
64 155 -8.16095
65 155 -8.93271
66 155 -9.72649
67 155 -10.5297
68 155 -11.3297
69 155 -12.1529
70 155 -12.9765
71 155 -13.787
72 155 -14.5934
73 155 -15.3825
74 155 -16.1885
75 155 -16.9629
76 155 -17.7455
77 155 -18.519
78 155 -19.2884
79 155 -20.0689
80 155 -20.8344
81 155 -21.6236
82 155 -22.4008
83 155 -23.1711
84 155 -23.9647
85 155 -24.7346
86 155 -25.544
87 155 -26.4241
88 155 -27.3053
89 155 -28.252
90 155 -29.2734
91 155 -30.3432
92 155 -31.4288
93 155 -32.5016
94 155 -33.4353
95 155 -34.1979
96 155 -34.9368
97 155 -35.6576
98 155 -36.3637
99 155 -37.0846
100 155 -37.8517
101 155 -38.6303
102 155 -39.4121
103 155 -40.2338
104 155 -41.0761
105 155 -41.9697
106 155 -42.9644
107 155 -44.2924
108 155 -46.8242
109 155 -52.4346
110 155 -58.9124
111 155 -126.767
112 155 -126.767
113 155 -126.767
114 155 -126.767
115 155 -126.767
116 155 -126.767
117 155 -126.767
118 155 -126.767
119 155 -126.767
0 156 -126.767
1 156 -126.767
2 156 -126.767
3 156 -126.767
4 156 -126.767
5 156 -126.767
6 156 -126.767
7 156 -126.767
8 156 -126.767
9 156 -126.767
10 156 -37.9544
11 156 -32.812
12 156 -28.9563
13 156 -25.1527
14 156 -22.4651
15 156 -20.52
16 156 -19.0247
17 156 -17.8577
18 156 -16.9614
19 156 -16.1838
20 156 -15.4733
21 156 -14.8127
22 156 -14.2025
23 156 -13.6126
24 156 -13.0198
25 156 -12.4188
26 156 -11.7462
27 156 -10.9701
28 156 -10.0792
29 156 -9.20451
30 156 -8.36374
31 156 -7.59541
32 156 -6.85978
33 156 -6.147
34 156 -5.47434
35 156 -4.82828
36 156 -4.20308
37 156 -3.61262
38 156 -3.0731
39 156 -2.56909
40 156 -2.10104
41 156 -1.69582
42 156 -1.32665
43 156 -1.04126
44 156 -0.794948
45 156 -0.603298
46 156 -0.463704
47 156 -0.410774
48 156 -0.403222
49 156 -0.497139
50 156 -0.635923
51 156 -0.836515
52 156 -1.07424
53 156 -1.36757
54 156 -1.70646
55 156 -2.10441
56 156 -2.5628
57 156 -3.07173
58 156 -3.64554
59 156 -4.25318
60 156 -4.89318
61 156 -5.55903
62 156 -6.26583
63 156 -7.04463
64 156 -7.82498
65 156 -8.63166
66 156 -9.44507
67 156 -10.2867
68 156 -11.1597
69 156 -12.017
70 156 -12.8667
71 156 -13.7206
72 156 -14.579
73 156 -15.4042
74 156 -16.2474
75 156 -17.0751
76 156 -17.9028
77 156 -18.7025
78 156 -19.5183
79 156 -20.3222
80 156 -21.1358
81 156 -21.9643
82 156 -22.7732
83 156 -23.6009
84 156 -24.4152
85 156 -25.2275
86 156 -26.0457
87 156 -26.93
88 156 -27.8273
89 156 -28.7643
90 156 -29.7308
91 156 -30.749
92 156 -31.7823
93 156 -32.779
94 156 -33.6763
95 156 -34.4947
96 156 -35.2684
97 156 -36.02
98 156 -36.7329
99 156 -37.4323
100 156 -38.1921
101 156 -38.9457
102 156 -39.7349
103 156 -40.5439
104 156 -41.3942
105 156 -42.2949
106 156 -43.3079
107 156 -44.5253
108 156 -46.3391
109 156 -48.8766
110 156 -126.767
111 156 -126.767
112 156 -126.767
113 156 -126.767
114 156 -126.767
115 156 -126.767
116 156 -126.767
117 156 -126.767
118 156 -126.767
119 156 -126.767
0 157 -126.767
1 157 -126.767
2 157 -126.767
3 157 -126.767
4 157 -126.767
5 157 -126.767
6 157 -126.767
7 157 -126.767
8 157 -126.767
9 157 -126.767
10 157 -38.5558
11 157 -32.713
12 157 -29.0323
13 157 -25.1357
14 157 -22.3976
15 157 -20.3923
16 157 -18.8604
17 157 -17.683
18 157 -16.7714
19 157 -15.9869
20 157 -15.2657
21 157 -14.5764
22 157 -13.9084
23 157 -13.2622
24 157 -12.6359
25 157 -12.0018
26 157 -11.3096
27 157 -10.5265
28 157 -9.64761
29 157 -8.7623
30 157 -7.92385
31 157 -7.15585
32 157 -6.4087
33 157 -5.67685
34 157 -4.9855
35 157 -4.34088
36 157 -3.69667
37 157 -3.09445
38 157 -2.53879
39 157 -2.00882
40 157 -1.53583
41 157 -1.11417
42 157 -0.731027
43 157 -0.42141
44 157 -0.172399
45 157 0.0422926
46 157 0.166712
47 157 0.227372
48 157 0.229559
49 157 0.139998
50 157 0.00728016
51 157 -0.222055
52 157 -0.428467
53 157 -0.712954
54 157 -1.08101
55 157 -1.50751
56 157 -1.98587
57 157 -2.50966
58 157 -3.07197
59 157 -3.68364
60 157 -4.35395
61 157 -5.06674
62 157 -5.83911
63 157 -6.63637
64 157 -7.44531
65 157 -8.29202
66 157 -9.17062
67 157 -10.0806
68 157 -10.9735
69 157 -11.864
70 157 -12.7688
71 157 -13.6852
72 157 -14.5703
73 157 -15.458
74 157 -16.3318
75 157 -17.2164
76 157 -18.0694
77 157 -18.9071
78 157 -19.7641
79 157 -20.6081
80 157 -21.4498
81 157 -22.3098
82 157 -23.1509
83 157 -24.0012
84 157 -24.8471
85 157 -25.676
86 157 -26.5328
87 157 -27.4077
88 157 -28.3036
89 157 -29.2004
90 157 -30.1556
91 157 -31.098
92 157 -32.0665
93 157 -33.0144
94 157 -33.8967
95 157 -34.7449
96 157 -35.5343
97 157 -36.2979
98 157 -37.0278
99 157 -37.7388
100 157 -38.4857
101 157 -39.2429
102 157 -40.0143
103 157 -40.816
104 157 -41.6495
105 157 -42.5689
106 157 -43.559
107 157 -44.7211
108 157 -46.4923
109 157 -49.5538
110 157 -126.767
111 157 -126.767
112 157 -126.767
113 157 -126.767
114 157 -126.767
115 157 -126.767
116 157 -126.767
117 157 -126.767
118 157 -126.767
119 157 -126.767
0 158 -126.767
1 158 -126.767
2 158 -126.767
3 158 -126.767
4 158 -126.767
5 158 -126.767
6 158 -126.767
7 158 -126.767
8 158 -126.767
9 158 -126.767
10 158 -126.767
11 158 -34.233
12 158 -29.2676
13 158 -25.0604
14 158 -22.2115
15 158 -20.1805
16 158 -18.6733
17 158 -17.4753
18 158 -16.5459
19 158 -15.7451
20 158 -15.013
21 158 -14.283
22 158 -13.5902
23 158 -12.8999
24 158 -12.2229
25 158 -11.5464
26 158 -10.8646
27 158 -10.075
28 158 -9.20497
29 158 -8.30839
30 158 -7.45536
31 158 -6.67666
32 158 -5.91748
33 158 -5.19077
34 158 -4.48517
35 158 -3.81147
36 158 -3.1727
37 158 -2.54881
38 158 -1.97178
39 158 -1.43138
40 158 -0.923756
41 158 -0.480915
42 158 -0.0875687
43 158 0.234204
44 158 0.507666
45 158 0.71435
46 158 0.8358
47 158 0.92057
48 158 0.896145
49 158 0.834133
50 158 0.706824
51 158 0.485047
52 158 0.251671
53 158 -0.0548796
54 158 -0.438458
55 158 -0.870528
56 158 -1.35529
57 158 -1.85846
58 158 -2.4478
59 158 -3.10217
60 158 -3.81507
61 158 -4.57694
62 158 -5.36237
63 158 -6.18894
64 158 -7.05812
65 158 -7.97101
66 158 -8.88599
67 158 -9.82262
68 158 -10.7623
69 158 -11.7247
70 158 -12.6847
71 158 -13.6507
72 158 -14.5868
73 158 -15.5129
74 158 -16.4464
75 158 -17.3618
76 158 -18.2479
77 158 -19.1217
78 158 -20.0099
79 158 -20.8905
80 158 -21.7619
81 158 -22.65
82 158 -23.5152
83 158 -24.3885
84 158 -25.241
85 158 -26.0991
86 158 -26.9686
87 158 -27.8252
88 158 -28.7179
89 158 -29.5856
90 158 -30.4911
91 158 -31.3937
92 158 -32.3107
93 158 -33.2466
94 158 -34.1208
95 158 -34.9742
96 158 -35.7629
97 158 -36.5388
98 158 -37.2781
99 158 -38.0388
100 158 -38.7758
101 158 -39.5347
102 158 -40.2899
103 158 -41.0746
104 158 -41.8961
105 158 -42.7745
106 158 -43.7257
107 158 -44.9496
108 158 -46.923
109 158 -50.5444
110 158 -126.767
111 158 -126.767
112 158 -126.767
113 158 -126.767
114 158 -126.767
115 158 -126.767
116 158 -126.767
117 158 -126.767
118 158 -126.767
119 158 -126.767
0 159 -126.767
1 159 -126.767
2 159 -126.767
3 159 -126.767
4 159 -126.767
5 159 -126.767
6 159 -126.767
7 159 -126.767
8 159 -126.767
9 159 -126.767
10 159 -126.767
11 159 -35.4876
12 159 -29.4451
13 159 -25.0686
14 159 -22.0409
15 159 -19.9465
16 159 -18.4132
17 159 -17.2089
18 159 -16.2935
19 159 -15.4924
20 159 -14.7188
21 159 -13.967
22 159 -13.2251
23 159 -12.507
24 159 -11.7937
25 159 -11.0788
26 159 -10.3777
27 159 -9.61408
28 159 -8.76286
29 159 -7.84536
30 159 -6.99134
31 159 -6.20199
32 159 -5.43314
33 159 -4.68729
34 159 -3.96334
35 159 -3.26927
36 159 -2.62066
37 159 -1.98669
38 159 -1.38459
39 159 -0.815025
40 159 -0.296362
41 159 0.171821
42 159 0.578221
43 159 0.909288
44 159 1.2201
45 159 1.42754
46 159 1.56105
47 159 1.63319
48 159 1.63643
49 159 1.55403
50 159 1.44294
51 159 1.23887
52 159 0.990804
53 159 0.658484
54 159 0.282399
55 159 -0.167433
56 159 -0.659338
57 159 -1.19574
58 159 -1.82097
59 159 -2.48715
60 159 -3.21562
61 159 -4.01457
62 159 -4.83761
63 159 -5.73112
64 159 -6.65506
65 159 -7.60389
66 159 -8.57416
67 159 -9.56458
68 159 -10.5814
69 159 -11.5886
70 159 -12.6078
71 159 -13.6113
72 159 -14.6148
73 159 -15.5935
74 159 -16.572
75 159 -17.5134
76 159 -18.4464
77 159 -19.3548
78 159 -20.2697
79 159 -21.1903
80 159 -22.0838
81 159 -22.9886
82 159 -23.8821
83 159 -24.777
84 159 -25.647
85 159 -26.5192
86 159 -27.3919
87 159 -28.2571
88 159 -29.137
89 159 -29.9763
90 159 -30.8384
91 159 -31.677
92 159 -32.5608
93 159 -33.4384
94 159 -34.3247
95 159 -35.1504
96 159 -35.9482
97 159 -36.7381
98 159 -37.5144
99 159 -38.287
100 159 -39.0285
101 159 -39.7983
102 159 -40.5398
103 159 -41.3006
104 159 -42.0749
105 159 -42.9068
106 159 -43.8192
107 159 -45.1299
108 159 -46.9087
109 159 -50.5416
110 159 -126.767
111 159 -126.767
112 159 -126.767
113 159 -126.767
114 159 -126.767
115 159 -126.767
116 159 -126.767
117 159 -126.767
118 159 -126.767
119 159 -126.767
0 160 -126.767
1 160 -126.767
2 160 -126.767
3 160 -126.767
4 160 -126.767
5 160 -126.767
6 160 -126.767
7 160 -126.767
8 160 -126.767
9 160 -126.767
10 160 -126.767
11 160 -35.7589
12 160 -29.6788
13 160 -25.2394
14 160 -22.0058
15 160 -19.7601
16 160 -18.1677
17 160 -16.9345
18 160 -16.0027
19 160 -15.1952
20 160 -14.3981
21 160 -13.6161
22 160 -12.8573
23 160 -12.1059
24 160 -11.3577
25 160 -10.6156
26 160 -9.88498
27 160 -9.1295
28 160 -8.28134
29 160 -7.37183
30 160 -6.50061
31 160 -5.69392
32 160 -4.91867
33 160 -4.15795
34 160 -3.43028
35 160 -2.73826
36 160 -2.05091
37 160 -1.39625
38 160 -0.767629
39 160 -0.171395
40 160 0.363911
41 160 0.839533
42 160 1.27638
43 160 1.64266
44 160 1.97555
45 160 2.174
46 160 2.33461
47 160 2.40336
48 160 2.4252
49 160 2.36451
50 160 2.24099
51 160 2.05737
52 160 1.78647
53 160 1.43577
54 160 1.03539
55 160 0.581645
56 160 0.0771896
57 160 -0.477196
58 160 -1.13591
59 160 -1.81362
60 160 -2.58059
61 160 -3.42888
62 160 -4.32167
63 160 -5.26466
64 160 -6.23832
65 160 -7.2376
66 160 -8.28427
67 160 -9.32207
68 160 -10.3926
69 160 -11.4583
70 160 -12.5296
71 160 -13.6045
72 160 -14.6615
73 160 -15.6852
74 160 -16.6987
75 160 -17.6928
76 160 -18.6667
77 160 -19.6041
78 160 -20.5559
79 160 -21.4978
80 160 -22.4314
81 160 -23.3526
82 160 -24.2568
83 160 -25.1597
84 160 -26.0595
85 160 -26.9399
86 160 -27.8027
87 160 -28.6841
88 160 -29.5513
89 160 -30.3682
90 160 -31.1765
91 160 -31.9803
92 160 -32.8021
93 160 -33.6203
94 160 -34.472
95 160 -35.3058
96 160 -36.1298
97 160 -36.9319
98 160 -37.7099
99 160 -38.4873
100 160 -39.2661
101 160 -40.0248
102 160 -40.7751
103 160 -41.5206
104 160 -42.2392
105 160 -43.0644
106 160 -44.068
107 160 -45.5664
108 160 -48.1473
109 160 -53.3426
110 160 -126.767
111 160 -126.767
112 160 -126.767
113 160 -126.767
114 160 -126.767
115 160 -126.767
116 160 -126.767
117 160 -126.767
118 160 -126.767
119 160 -126.767
0 161 -126.767
1 161 -126.767
2 161 -126.767
3 161 -126.767
4 161 -126.767
5 161 -126.767
6 161 -126.767
7 161 -126.767
8 161 -126.767
9 161 -126.767
10 161 -126.767
11 161 -126.767
12 161 -31.6753
13 161 -25.7305
14 161 -22.0794
15 161 -19.617
16 161 -17.9516
17 161 -16.6879
18 161 -15.7134
19 161 -14.8654
20 161 -14.0398
21 161 -13.2259
22 161 -12.4525
23 161 -11.6817
24 161 -10.9075
25 161 -10.1299
26 161 -9.3616
27 161 -8.5904
28 161 -7.77942
29 161 -6.86289
30 161 -5.99197
31 161 -5.1828
32 161 -4.38575
33 161 -3.62748
34 161 -2.88951
35 161 -2.17599
36 161 -1.48152
37 161 -0.794332
38 161 -0.124825
39 161 0.505137
40 161 1.07906
41 161 1.58293
42 161 2.02894
43 161 2.41113
44 161 2.7588
45 161 2.99031
46 161 3.16035
47 161 3.25452
48 161 3.26788
49 161 3.2235
50 161 3.10494
51 161 2.90514
52 161 2.64243
53 161 2.28264
54 161 1.85583
55 161 1.38327
56 161 0.876816
57 161 0.289596
58 161 -0.372982
59 161 -1.10842
60 161 -1.92686
61 161 -2.83788
62 161 -3.78198
63 161 -4.78087
64 161 -5.81203
65 161 -6.88554
66 161 -7.97393
67 161 -9.08401
68 161 -10.213
69 161 -11.3516
70 161 -12.4848
71 161 -13.6242
72 161 -14.7498
73 161 -15.8124
74 161 -16.8643
75 161 -17.8979
76 161 -18.9056
77 161 -19.8976
78 161 -20.877
79 161 -21.8361
80 161 -22.7947
81 161 -23.7125
82 161 -24.6406
83 161 -25.5509
84 161 -26.4483
85 161 -27.3488
86 161 -28.2168
87 161 -29.0915
88 161 -29.9411
89 161 -30.7342
90 161 -31.5068
91 161 -32.2688
92 161 -33.037
93 161 -33.8346
94 161 -34.6271
95 161 -35.4263
96 161 -36.2623
97 161 -37.079
98 161 -37.8877
99 161 -38.6706
100 161 -39.4435
101 161 -40.2322
102 161 -40.9888
103 161 -41.7105
104 161 -42.426
105 161 -43.2688
106 161 -44.3729
107 161 -46.0574
108 161 -48.3805
109 161 -52.7807
110 161 -126.767
111 161 -126.767
112 161 -126.767
113 161 -126.767
114 161 -126.767
115 161 -126.767
116 161 -126.767
117 161 -126.767
118 161 -126.767
119 161 -126.767
0 162 -126.767
1 162 -126.767
2 162 -126.767
3 162 -126.767
4 162 -126.767
5 162 -126.767
6 162 -126.767
7 162 -126.767
8 162 -126.767
9 162 -126.767
10 162 -126.767
11 162 -126.767
12 162 -32.8954
13 162 -26.0192
14 162 -22.1985
15 162 -19.5513
16 162 -17.7956
17 162 -16.4925
18 162 -15.4306
19 162 -14.5055
20 162 -13.6774
21 162 -12.8195
22 162 -12.0275
23 162 -11.2293
24 162 -10.439
25 162 -9.6513
26 162 -8.85494
27 162 -8.04138
28 162 -7.24373
29 162 -6.34623
30 162 -5.46612
31 162 -4.65179
32 162 -3.85563
33 162 -3.07846
34 162 -2.32825
35 162 -1.5904
36 162 -0.870426
37 162 -0.15448
38 162 0.547596
39 162 1.21156
40 162 1.82019
41 162 2.35714
42 162 2.82724
43 162 3.24286
44 162 3.60176
45 162 3.87492
46 162 4.04986
47 162 4.16336
48 162 4.18089
49 162 4.12451
50 162 4.00266
51 162 3.79743
52 162 3.53567
53 162 3.17603
54 162 2.72903
55 162 2.23344
56 162 1.71274
57 162 1.09895
58 162 0.414836
59 162 -0.371426
60 162 -1.25079
61 162 -2.21956
62 162 -3.24976
63 162 -4.31219
64 162 -5.40871
65 162 -6.52228
66 162 -7.68437
67 162 -8.87071
68 162 -10.0642
69 162 -11.2663
70 162 -12.4747
71 162 -13.6774
72 162 -14.8494
73 162 -15.9634
74 162 -17.0615
75 162 -18.1217
76 162 -19.1712
77 162 -20.2097
78 162 -21.2217
79 162 -22.1921
80 162 -23.1521
81 162 -24.1051
82 162 -25.0302
83 162 -25.9549
84 162 -26.8542
85 162 -27.7428
86 162 -28.6126
87 162 -29.4914
88 162 -30.3183
89 162 -31.1217
90 162 -31.8565
91 162 -32.5703
92 162 -33.2957
93 162 -34.0284
94 162 -34.7811
95 162 -35.5426
96 162 -36.3368
97 162 -37.1654
98 162 -37.9963
99 162 -38.7935
100 162 -39.5841
101 162 -40.3905
102 162 -41.1603
103 162 -41.9039
104 162 -42.6355
105 162 -43.4859
106 162 -44.6377
107 162 -46.5538
108 162 -49.9171
109 162 -54.0323
110 162 -126.767
111 162 -126.767
112 162 -126.767
113 162 -126.767
114 162 -126.767
115 162 -126.767
116 162 -126.767
117 162 -126.767
118 162 -126.767
119 162 -126.767
0 163 -126.767
1 163 -126.767
2 163 -126.767
3 163 -126.767
4 163 -126.767
5 163 -126.767
6 163 -126.767
7 163 -126.767
8 163 -126.767
9 163 -126.767
10 163 -126.767
11 163 -126.767
12 163 -33.1355
13 163 -26.3227
14 163 -22.4023
15 163 -19.6097
16 163 -17.7643
17 163 -16.3599
18 163 -15.1745
19 163 -14.1582
20 163 -13.2598
21 163 -12.4347
22 163 -11.6008
23 163 -10.7756
24 163 -9.95171
25 163 -9.14586
26 163 -8.32892
27 163 -7.49995
28 163 -6.68135
29 163 -5.81391
30 163 -4.93721
31 163 -4.0919
32 163 -3.28612
33 163 -2.50429
34 163 -1.73615
35 163 -0.979324
36 163 -0.237125
37 163 0.502499
38 163 1.22596
39 163 1.95018
40 163 2.59046
41 163 3.16522
42 163 3.67641
43 163 4.12407
44 163 4.50803
45 163 4.80354
46 163 5.00497
47 163 5.12367
48 163 5.14653
49 163 5.10422
50 163 4.97252
51 163 4.76459
52 163 4.47696
53 163 4.11775
54 163 3.66129
55 163 3.16132
56 163 2.59966
57 163 1.95832
58 163 1.2018
59 163 0.368279
60 163 -0.558578
61 163 -1.59822
62 163 -2.68939
63 163 -3.80425
64 163 -4.9703
65 163 -6.16976
66 163 -7.40637
67 163 -8.66205
68 163 -9.93247
69 163 -11.2269
70 163 -12.517
71 163 -13.7692
72 163 -14.9699
73 163 -16.1409
74 163 -17.283
75 163 -18.381
76 163 -19.4706
77 163 -20.5217
78 163 -21.5621
79 163 -22.5717
80 163 -23.553
81 163 -24.5204
82 163 -25.4376
83 163 -26.3667
84 163 -27.2667
85 163 -28.1633
86 163 -29.0387
87 163 -29.8984
88 163 -30.709
89 163 -31.4957
90 163 -32.1944
91 163 -32.882
92 163 -33.5492
93 163 -34.2229
94 163 -34.9247
95 163 -35.6514
96 163 -36.4194
97 163 -37.225
98 163 -38.0574
99 163 -38.8876
100 163 -39.7063
101 163 -40.525
102 163 -41.32
103 163 -42.1214
104 163 -42.8914
105 163 -43.7344
106 163 -44.7602
107 163 -46.0529
108 163 -48.9405
109 163 -126.767
110 163 -126.767
111 163 -126.767
112 163 -126.767
113 163 -126.767
114 163 -126.767
115 163 -126.767
116 163 -126.767
117 163 -126.767
118 163 -126.767
119 163 -126.767
0 164 -126.767
1 164 -126.767
2 164 -126.767
3 164 -126.767
4 164 -126.767
5 164 -126.767
6 164 -126.767
7 164 -126.767
8 164 -126.767
9 164 -126.767
10 164 -126.767
11 164 -126.767
12 164 -126.767
13 164 -28.4698
14 164 -23.128
15 164 -19.8793
16 164 -17.8571
17 164 -16.2656
18 164 -14.9851
19 164 -13.8599
20 164 -12.8551
21 164 -12.0232
22 164 -11.1713
23 164 -10.3247
24 164 -9.49585
25 164 -8.64636
26 164 -7.80925
27 164 -6.95757
28 164 -6.121
29 164 -5.25796
30 164 -4.37671
31 164 -3.54421
32 164 -2.71809
33 164 -1.92998
34 164 -1.12232
35 164 -0.330948
36 164 0.434033
37 164 1.19928
38 164 1.94902
39 164 2.69341
40 164 3.38489
41 164 3.99808
42 164 4.55503
43 164 5.04471
44 164 5.45724
45 164 5.76452
46 164 5.98072
47 164 6.12496
48 164 6.15584
49 164 6.11364
50 164 5.99289
51 164 5.79392
52 164 5.49376
53 164 5.11582
54 164 4.6617
55 164 4.1354
56 164 3.53548
57 164 2.83182
58 164 2.0341
59 164 1.13036
60 164 0.134566
61 164 -0.965282
62 164 -2.095
63 164 -3.29986
64 164 -4.5461
65 164 -5.8277
66 164 -7.13218
67 164 -8.47114
68 164 -9.83737
69 164 -11.2057
70 164 -12.5488
71 164 -13.8538
72 164 -15.1304
73 164 -16.3385
74 164 -17.5159
75 164 -18.6717
76 164 -19.7793
77 164 -20.871
78 164 -21.9284
79 164 -22.964
80 164 -23.9603
81 164 -24.9155
82 164 -25.8512
83 164 -26.7821
84 164 -27.6809
85 164 -28.5616
86 164 -29.4365
87 164 -30.2918
88 164 -31.0942
89 164 -31.864
90 164 -32.5354
91 164 -33.1996
92 164 -33.8077
93 164 -34.4294
94 164 -35.0811
95 164 -35.7629
96 164 -36.5015
97 164 -37.2818
98 164 -38.1045
99 164 -38.948
100 164 -39.7921
101 164 -40.6296
102 164 -41.4536
103 164 -42.3185
104 164 -43.1901
105 164 -44.0866
106 164 -45.1185
107 164 -45.1973
108 164 -48.5353
109 164 -126.767
110 164 -126.767
111 164 -126.767
112 164 -126.767
113 164 -126.767
114 164 -126.767
115 164 -126.767
116 164 -126.767
117 164 -126.767
118 164 -126.767
119 164 -126.767
0 165 -126.767
1 165 -126.767
2 165 -126.767
3 165 -126.767
4 165 -126.767
5 165 -126.767
6 165 -126.767
7 165 -126.767
8 165 -126.767
9 165 -126.767
10 165 -126.767
11 165 -126.767
12 165 -126.767
13 165 -28.6814
14 165 -23.2947
15 165 -20.1642
16 165 -18.046
17 165 -16.2599
18 165 -14.8386
19 165 -13.5656
20 165 -12.4669
21 165 -11.605
22 165 -10.7295
23 165 -9.85832
24 165 -9.00652
25 165 -8.14863
26 165 -7.28615
27 165 -6.41053
28 165 -5.55625
29 165 -4.66833
30 165 -3.80137
31 165 -2.95758
32 165 -2.11259
33 165 -1.29194
34 165 -0.476843
35 165 0.316278
36 165 1.11357
37 165 1.90692
38 165 2.6831
39 165 3.4765
40 165 4.21024
41 165 4.86558
42 165 5.44416
43 165 5.9643
44 165 6.39469
45 165 6.73747
46 165 6.97623
47 165 7.11194
48 165 7.1575
49 165 7.12995
50 165 7.01411
51 165 6.81354
52 165 6.5131
53 165 6.13888
54 165 5.67586
55 165 5.10101
56 165 4.46589
57 165 3.72538
58 165 2.87664
59 165 1.92637
60 165 0.86138
61 165 -0.292658
62 165 -1.50635
63 165 -2.77513
64 165 -4.10575
65 165 -5.45682
66 165 -6.86122
67 165 -8.3004
68 165 -9.75571
69 165 -11.1807
70 165 -12.5964
71 165 -13.9635
72 165 -15.28
73 165 -16.5621
74 165 -17.7965
75 165 -18.9865
76 165 -20.1479
77 165 -21.2413
78 165 -22.3321
79 165 -23.3651
80 165 -24.3625
81 165 -25.3384
82 165 -26.295
83 165 -27.2011
84 165 -28.1124
85 165 -28.9882
86 165 -29.8501
87 165 -30.6631
88 165 -31.4622
89 165 -32.2048
90 165 -32.8799
91 165 -33.4972
92 165 -34.0559
93 165 -34.6238
94 165 -35.237
95 165 -35.8772
96 165 -36.5578
97 165 -37.3121
98 165 -38.1046
99 165 -38.931
100 165 -39.8137
101 165 -40.6794
102 165 -41.5709
103 165 -42.5169
104 165 -43.5559
105 165 -44.7137
106 165 -46.4366
107 165 -51.0081
108 165 -57.4859
109 165 -126.767
110 165 -126.767
111 165 -126.767
112 165 -126.767
113 165 -126.767
114 165 -126.767
115 165 -126.767
116 165 -126.767
117 165 -126.767
118 165 -126.767
119 165 -126.767
0 166 -126.767
1 166 -126.767
2 166 -126.767
3 166 -126.767
4 166 -126.767
5 166 -126.767
6 166 -126.767
7 166 -126.767
8 166 -126.767
9 166 -126.767
10 166 -126.767
11 166 -126.767
12 166 -126.767
13 166 -126.767
14 166 -24.0522
15 166 -20.6391
16 166 -18.4776
17 166 -16.4712
18 166 -14.8177
19 166 -13.373
20 166 -12.142
21 166 -11.1799
22 166 -10.2842
23 166 -9.41777
24 166 -8.53224
25 166 -7.6599
26 166 -6.75578
27 166 -5.87908
28 166 -4.99453
29 166 -4.08626
30 166 -3.20057
31 166 -2.34318
32 166 -1.49682
33 166 -0.660905
34 166 0.168564
35 166 1.00723
36 166 1.82863
37 166 2.63616
38 166 3.4418
39 166 4.2639
40 166 5.0152
41 166 5.7041
42 166 6.32848
43 166 6.87073
44 166 7.31555
45 166 7.67692
46 166 7.94213
47 166 8.09565
48 166 8.16115
49 166 8.14999
50 166 8.03148
51 166 7.84083
52 166 7.54398
53 166 7.16306
54 166 6.69443
55 166 6.10151
56 166 5.42542
57 166 4.6448
58 166 3.73969
59 166 2.7278
60 166 1.61396
61 166 0.378945
62 166 -0.916246
63 166 -2.25676
64 166 -3.64842
65 166 -5.10958
66 166 -6.61828
67 166 -8.14488
68 166 -9.67263
69 166 -11.1673
70 166 -12.653
71 166 -14.091
72 166 -15.4809
73 166 -16.8187
74 166 -18.0985
75 166 -19.3289
76 166 -20.5268
77 166 -21.6668
78 166 -22.7697
79 166 -23.8165
80 166 -24.822
81 166 -25.7963
82 166 -26.7306
83 166 -27.627
84 166 -28.5282
85 166 -29.3962
86 166 -30.2559
87 166 -31.0631
88 166 -31.8242
89 166 -32.5598
90 166 -33.1977
91 166 -33.7886
92 166 -34.3113
93 166 -34.8437
94 166 -35.4059
95 166 -35.9942
96 166 -36.6319
97 166 -37.3409
98 166 -38.0864
99 166 -38.9033
100 166 -39.8019
101 166 -40.6788
102 166 -41.6276
103 166 -42.6718
104 166 -43.8049
105 166 -45.0777
106 166 -46.9999
107 166 -50.0534
108 166 -126.767
109 166 -126.767
110 166 -126.767
111 166 -126.767
112 166 -126.767
113 166 -126.767
114 166 -126.767
115 166 -126.767
116 166 -126.767
117 166 -126.767
118 166 -126.767
119 166 -126.767
0 167 -126.767
1 167 -126.767
2 167 -126.767
3 167 -126.767
4 167 -126.767
5 167 -126.767
6 167 -126.767
7 167 -126.767
8 167 -126.767
9 167 -126.767
10 167 -126.767
11 167 -126.767
12 167 -126.767
13 167 -126.767
14 167 -126.767
15 167 -21.6635
16 167 -19.4252
17 167 -16.8867
18 167 -14.9025
19 167 -13.242
20 167 -11.8527
21 167 -10.7649
22 167 -9.8403
23 167 -8.94674
24 167 -8.06677
25 167 -7.16732
26 167 -6.27147
27 167 -5.3557
28 167 -4.43687
29 167 -3.53776
30 167 -2.64695
31 167 -1.76262
32 167 -0.89234
33 167 -0.0400474
34 167 0.808465
35 167 1.66482
36 167 2.50701
37 167 3.34958
38 167 4.18987
39 167 5.03202
40 167 5.82936
41 167 6.56435
42 167 7.19188
43 167 7.74048
44 167 8.21092
45 167 8.60466
46 167 8.88328
47 167 9.05948
48 167 9.16196
49 167 9.15745
50 167 9.05672
51 167 8.87307
52 167 8.59273
53 167 8.20741
54 167 7.72377
55 167 7.12393
56 167 6.40118
57 167 5.57388
58 167 4.63386
59 167 3.57057
60 167 2.38513
61 167 1.08396
62 167 -0.272876
63 167 -1.70893
64 167 -3.20484
65 167 -4.75634
66 167 -6.35518
67 167 -7.96731
68 167 -9.59117
69 167 -11.1843
70 167 -12.7352
71 167 -14.2601
72 167 -15.696
73 167 -17.1177
74 167 -18.47
75 167 -19.7503
76 167 -20.9823
77 167 -22.141
78 167 -23.2554
79 167 -24.3042
80 167 -25.3074
81 167 -26.2718
82 167 -27.1991
83 167 -28.0946
84 167 -28.9625
85 167 -29.8058
86 167 -30.6399
87 167 -31.4446
88 167 -32.188
89 167 -32.87
90 167 -33.4919
91 167 -34.0655
92 167 -34.58
93 167 -35.0682
94 167 -35.5692
95 167 -36.124
96 167 -36.7125
97 167 -37.3595
98 167 -38.0639
99 167 -38.8295
100 167 -39.6657
101 167 -40.5842
102 167 -41.5775
103 167 -42.7121
104 167 -43.8877
105 167 -45.3717
106 167 -46.9008
107 167 -50.6691
108 167 -126.767
109 167 -126.767
110 167 -126.767
111 167 -126.767
112 167 -126.767
113 167 -126.767
114 167 -126.767
115 167 -126.767
116 167 -126.767
117 167 -126.767
118 167 -126.767
119 167 -126.767
0 168 -126.767
1 168 -126.767
2 168 -126.767
3 168 -126.767
4 168 -126.767
5 168 -126.767
6 168 -126.767
7 168 -126.767
8 168 -126.767
9 168 -126.767
10 168 -126.767
11 168 -126.767
12 168 -126.767
13 168 -126.767
14 168 -126.767
15 168 -126.767
16 168 -21.7014
17 168 -17.2086
18 168 -14.8375
19 168 -13.0599
20 168 -11.516
21 168 -10.3783
22 168 -9.36588
23 168 -8.48291
24 168 -7.58505
25 168 -6.67781
26 168 -5.74751
27 168 -4.83292
28 168 -3.91849
29 168 -3.0116
30 168 -2.11095
31 168 -1.19937
32 168 -0.307339
33 168 0.555079
34 168 1.41472
35 168 2.28635
36 168 3.16938
37 168 4.03513
38 168 4.89424
39 168 5.75027
40 168 6.59013
41 168 7.35348
42 168 8.02631
43 168 8.59699
44 168 9.09681
45 168 9.5056
46 168 9.8209
47 168 10.0297
48 168 10.1436
49 168 10.1562
50 168 10.0736
51 168 9.90554
52 168 9.6318
53 168 9.27273
54 168 8.77771
55 168 8.15213
56 168 7.42398
57 168 6.57107
58 168 5.58347
59 168 4.4658
60 168 3.20979
61 168 1.84482
62 168 0.398846
63 168 -1.13576
64 168 -2.74525
65 168 -4.40501
66 168 -6.09895
67 168 -7.81123
68 168 -9.49821
69 168 -11.1844
70 168 -12.834
71 168 -14.4516
72 168 -15.9944
73 168 -17.482
74 168 -18.8521
75 168 -20.1959
76 168 -21.4611
77 168 -22.6486
78 168 -23.7661
79 168 -24.8045
80 168 -25.8121
81 168 -26.7519
82 168 -27.6535
83 168 -28.5375
84 168 -29.3849
85 168 -30.2295
86 168 -31.0454
87 168 -31.8147
88 168 -32.523
89 168 -33.176
90 168 -33.7899
91 168 -34.3451
92 168 -34.8481
93 168 -35.2974
94 168 -35.7558
95 168 -36.2525
96 168 -36.7829
97 168 -37.3878
98 168 -38.0446
99 168 -38.7445
100 168 -39.5396
101 168 -40.447
102 168 -41.4592
103 168 -42.5745
104 168 -43.8638
105 168 -45.5241
106 168 -47.1287
107 168 -126.767
108 168 -126.767
109 168 -126.767
110 168 -126.767
111 168 -126.767
112 168 -126.767
113 168 -126.767
114 168 -126.767
115 168 -126.767
116 168 -126.767
117 168 -126.767
118 168 -126.767
119 168 -126.767
0 169 -126.767
1 169 -126.767
2 169 -126.767
3 169 -126.767
4 169 -126.767
5 169 -126.767
6 169 -126.767
7 169 -126.767
8 169 -126.767
9 169 -126.767
10 169 -126.767
11 169 -126.767
12 169 -126.767
13 169 -126.767
14 169 -126.767
15 169 -126.767
16 169 -21.4287
17 169 -16.6686
18 169 -14.4905
19 169 -12.7974
20 169 -11.2273
21 169 -10.0318
22 169 -8.94325
23 169 -8.01447
24 169 -7.12814
25 169 -6.20274
26 169 -5.26407
27 169 -4.34296
28 169 -3.41758
29 169 -2.5002
30 169 -1.58587
31 169 -0.684554
32 169 0.227157
33 169 1.13086
34 169 2.01811
35 169 2.908
36 169 3.78484
37 169 4.67175
38 169 5.54669
39 169 6.43422
40 169 7.30954
41 169 8.09019
42 169 8.77893
43 169 9.39245
44 169 9.93035
45 169 10.3831
46 169 10.7144
47 169 10.9538
48 169 11.0895
49 169 11.1261
50 169 11.0805
51 169 10.9459
52 169 10.6908
53 169 10.3356
54 169 9.85762
55 169 9.23003
56 169 8.47834
57 169 7.57847
58 169 6.55526
59 169 5.38297
60 169 4.07523
61 169 2.63576
62 169 1.09591
63 169 -0.542386
64 169 -2.25125
65 169 -4.01029
66 169 -5.80856
67 169 -7.60637
68 169 -9.41585
69 169 -11.2117
70 169 -12.9851
71 169 -14.682
72 169 -16.3085
73 169 -17.8784
74 169 -19.3413
75 169 -20.7023
76 169 -21.9981
77 169 -23.1883
78 169 -24.3095
79 169 -25.3423
80 169 -26.3363
81 169 -27.2702
82 169 -28.1587
83 169 -29.0139
84 169 -29.845
85 169 -30.65
86 169 -31.4406
87 169 -32.171
88 169 -32.8448
89 169 -33.4621
90 169 -34.0624
91 169 -34.6133
92 169 -35.0934
93 169 -35.5295
94 169 -35.9543
95 169 -36.3982
96 169 -36.8913
97 169 -37.4448
98 169 -38.054
99 169 -38.7184
100 169 -39.4627
101 169 -40.3145
102 169 -41.277
103 169 -42.3358
104 169 -43.7151
105 169 -45.9745
106 169 -48.0732
107 169 -126.767
108 169 -126.767
109 169 -126.767
110 169 -126.767
111 169 -126.767
112 169 -126.767
113 169 -126.767
114 169 -126.767
115 169 -126.767
116 169 -126.767
117 169 -126.767
118 169 -126.767
119 169 -126.767
0 170 -126.767
1 170 -126.767
2 170 -126.767
3 170 -126.767
4 170 -126.767
5 170 -126.767
6 170 -126.767
7 170 -126.767
8 170 -126.767
9 170 -126.767
10 170 -126.767
11 170 -126.767
12 170 -126.767
13 170 -126.767
14 170 -126.767
15 170 -126.767
16 170 -126.767
17 170 -16.9381
18 170 -14.4849
19 170 -12.6762
20 170 -11.0242
21 170 -9.80154
22 170 -8.63653
23 170 -7.57849
24 170 -6.67821
25 170 -5.74334
26 170 -4.8115
27 170 -3.88378
28 170 -2.9502
29 170 -2.02592
30 170 -1.09195
31 170 -0.17934
32 170 0.728732
33 170 1.65105
34 170 2.56256
35 170 3.46114
36 170 4.36643
37 170 5.28425
38 170 6.18265
39 170 7.08488
40 170 7.9767
41 170 8.77781
42 170 9.50937
43 170 10.1452
44 170 10.7123
45 170 11.1834
46 170 11.5672
47 170 11.8476
48 170 12.0163
49 170 12.0959
50 170 12.0653
51 170 11.9629
52 170 11.7482
53 170 11.4053
54 170 10.9443
55 170 10.3152
56 170 9.54803
57 170 8.64065
58 170 7.57829
59 170 6.3658
60 170 4.99014
61 170 3.46287
62 170 1.83644
63 170 0.097142
64 170 -1.71443
65 170 -3.58765
66 170 -5.49483
67 170 -7.43141
68 170 -9.37478
69 170 -11.2738
70 170 -13.1539
71 170 -14.9563
72 170 -16.6857
73 170 -18.3481
74 170 -19.8897
75 170 -21.285
76 170 -22.5934
77 170 -23.7839
78 170 -24.9051
79 170 -25.9557
80 170 -26.9036
81 170 -27.8162
82 170 -28.6761
83 170 -29.4905
84 170 -30.279
85 170 -31.0666
86 170 -31.8
87 170 -32.5058
88 170 -33.1545
89 170 -33.7531
90 170 -34.3204
91 170 -34.8524
92 170 -35.3165
93 170 -35.7525
94 170 -36.1493
95 170 -36.5603
96 170 -36.9914
97 170 -37.4905
98 170 -38.0433
99 170 -38.6876
100 170 -39.3986
101 170 -40.2081
102 170 -41.088
103 170 -41.984
104 170 -42.7536
105 170 -42.5685
106 170 -49.3342
107 170 -126.767
108 170 -126.767
109 170 -126.767
110 170 -126.767
111 170 -126.767
112 170 -126.767
113 170 -126.767
114 170 -126.767
115 170 -126.767
116 170 -126.767
117 170 -126.767
118 170 -126.767
119 170 -126.767
0 171 -126.767
1 171 -126.767
2 171 -126.767
3 171 -126.767
4 171 -126.767
5 171 -126.767
6 171 -126.767
7 171 -126.767
8 171 -126.767
9 171 -126.767
10 171 -126.767
11 171 -126.767
12 171 -126.767
13 171 -126.767
14 171 -126.767
15 171 -126.767
16 171 -126.767
17 171 -126.767
18 171 -14.8157
19 171 -12.6723
20 171 -10.6856
21 171 -9.51932
22 171 -8.3782
23 171 -7.25612
24 171 -6.27368
25 171 -5.31909
26 171 -4.37752
27 171 -3.44721
28 171 -2.50461
29 171 -1.5492
30 171 -0.637641
31 171 0.283256
32 171 1.21373
33 171 2.14359
34 171 3.07148
35 171 3.98199
36 171 4.90403
37 171 5.83281
38 171 6.7556
39 171 7.69501
40 171 8.60608
41 171 9.44792
42 171 10.2018
43 171 10.8726
44 171 11.4607
45 171 11.9679
46 171 12.3681
47 171 12.6923
48 171 12.9076
49 171 13.0121
50 171 13.0263
51 171 12.953
52 171 12.7747
53 171 12.4756
54 171 12.0356
55 171 11.4384
56 171 10.6873
57 171 9.76893
58 171 8.66285
59 171 7.41494
60 171 5.96852
61 171 4.37578
62 171 2.65605
63 171 0.810138
64 171 -1.12365
65 171 -3.11161
66 171 -5.1688
67 171 -7.23593
68 171 -9.28972
69 171 -11.3353
70 171 -13.3389
71 171 -15.2716
72 171 -17.1413
73 171 -18.8881
74 171 -20.4841
75 171 -21.9279
76 171 -23.2537
77 171 -24.4234
78 171 -25.5351
79 171 -26.5548
80 171 -27.4911
81 171 -28.369
82 171 -29.1902
83 171 -29.9668
84 171 -30.7234
85 171 -31.4475
86 171 -32.1522
87 171 -32.8051
88 171 -33.4235
89 171 -34.0168
90 171 -34.5771
91 171 -35.0824
92 171 -35.54
93 171 -35.9746
94 171 -36.3443
95 171 -36.7234
96 171 -37.1026
97 171 -37.5695
98 171 -38.0684
99 171 -38.6802
100 171 -39.3485
101 171 -40.1256
102 171 -40.9578
103 171 -41.9874
104 171 -43.1958
105 171 -45.3772
106 171 -126.767
107 171 -126.767
108 171 -126.767
109 171 -126.767
110 171 -126.767
111 171 -126.767
112 171 -126.767
113 171 -126.767
114 171 -126.767
115 171 -126.767
116 171 -126.767
117 171 -126.767
118 171 -126.767
119 171 -126.767
0 172 -126.767
1 172 -126.767
2 172 -126.767
3 172 -126.767
4 172 -126.767
5 172 -126.767
6 172 -126.767
7 172 -126.767
8 172 -126.767
9 172 -126.767
10 172 -126.767
11 172 -126.767
12 172 -126.767
13 172 -126.767
14 172 -126.767
15 172 -126.767
16 172 -126.767
17 172 -126.767
18 172 -126.767
19 172 -12.8971
20 172 -10.1859
21 172 -9.11947
22 172 -7.97882
23 172 -6.88227
24 172 -5.87876
25 172 -4.93075
26 172 -3.97905
27 172 -3.01941
28 172 -2.07657
29 172 -1.13582
30 172 -0.208323
31 172 0.725051
32 172 1.66128
33 172 2.58614
34 172 3.55052
35 172 4.48334
36 172 5.40496
37 172 6.35577
38 172 7.29409
39 172 8.23766
40 172 9.18182
41 172 10.0584
42 172 10.8338
43 172 11.5523
44 172 12.1696
45 172 12.703
46 172 13.133
47 172 13.487
48 172 13.7062
49 172 13.8435
50 172 13.9302
51 172 13.9302
52 172 13.8139
53 172 13.5564
54 172 13.167
55 172 12.5908
56 172 11.8628
57 172 10.9379
58 172 9.83389
59 172 8.52237
60 172 7.04689
61 172 5.37082
62 172 3.54175
63 172 1.59214
64 172 -0.439154
65 172 -2.57964
66 172 -4.76496
67 172 -6.9915
68 172 -9.24262
69 172 -11.4412
70 172 -13.6182
71 172 -15.6963
72 172 -17.6578
73 172 -19.4717
74 172 -21.1373
75 172 -22.5982
76 172 -23.9657
77 172 -25.1359
78 172 -26.2061
79 172 -27.1988
80 172 -28.085
81 172 -28.9037
82 172 -29.6767
83 172 -30.414
84 172 -31.1288
85 172 -31.7986
86 172 -32.4558
87 172 -33.07
